-1007.874,-62.992126,-3370.0789,-3653.5432,-3244.0945,-1952.7559,-2047.2441,-2866.1418,-4062.9922,-4283.4644,-4314.9604,-4346.4565,-4283.4644,-4220.4727,-4157.4805,-4094.4883,-4000.0,-4000.0,-4000.0,-3842.5198,-3811.0237,-3779.5276,-3779.5276,-3748.0315,-3685.0393,-3653.5432,-3716.5354,-3685.0393,-3590.5513,-2614.1733,-3401.5747,-3338.5828,-3212.5984,-3118.1104,-3086.6143,-3275.5906,-3433.0708,-3622.0474,-3653.5432,-3685.0393,-3811.0237,-3842.5198,-3905.5117,-4031.496,-4031.496,-3968.504,-3653.5432,-3590.5513,-3527.559,-3496.063,-3590.5513,-3653.5432,-3685.0393,-4000.0,-4283.4644,-4283.4644,-4220.4727,-4503.937,-4503.937,-4503.937,-4503.937,-4692.9136,-4724.4097,-4755.9053,-4755.9053,-4724.4097,-4818.8975,-4535.433,-4031.496,-3307.0867,-3338.5828,-2015.748,99999.0,99999.0,99999.0,99999.0,99999.0,99999.0,99999.0,99999.0,99999.0,99999.0,99999.0,99999.0,99999.0,99999.0,99999.0,99999.0,99999.0,99999.0,99999.0,99999.0,99999.0,99999.0,99999.0,99999.0,99999.0,99999.0,99999.0,99999.0,99999.0,99999.0,99999.0,99999.0,99999.0,99999.0,99999.0,99999.0,-1543.3071,-3937.0078,-4031.496,-4188.9766,-4503.937,-4661.4175,-4755.9053,-4755.9053,-4913.3857,-5007.874,-5291.3384,-5480.315,-5511.811,-5291.3384,-5102.3623,-5007.874,-5259.8423,-5007.874,-4787.4014,-4472.441,-4503.937,-4000.0,-3716.5354,-3496.063,-3149.6062,-2456.6929,-2992.126,-3370.0789,-3496.063,-3811.0237,-4062.9922,-4031.496,-3055.1182,-4125.9844,-4503.937,-4850.3936,-5007.874,-5543.307,-5133.8584,-5385.8267,-5165.3545,-5133.8584,-5102.3623,-5070.866,-5070.866,-5070.866,-5102.3623,-4755.9053,-4094.4883,-3370.0789,-1543.3071,99999.0,99999.0,99999.0,99999.0,99999.0,99999.0,99999.0,99999.0,99999.0,99999.0,99999.0,99999.0,99999.0,99999.0,99999.0,99999.0,99999.0,99999.0,99999.0,99999.0,99999.0,99999.0,99999.0,99999.0,99999.0,99999.0,99999.0,99999.0,0.0,-2645.6692,-3244.0945,-3086.6143,-1102.3622,-2299.2126,99999.0,99999.0,99999.0,99999.0,-94.48819,-4000.0,-4472.441,-4566.929,-4629.9214,-4503.937,-4440.945,-4220.4727,-4062.9922,-2488.189,-31.496063,-818.89764,-3433.0708,-4062.9922,-2204.7244,-3590.5513,-2992.126,-2771.6536,-3433.0708,-3968.504,-4409.4487,-4535.433,-5259.8423,-4724.4097,-5165.3545,-5543.307,-5102.3623,-5007.874,-5007.874,-5007.874,-5007.874,-4976.378,-5102.3623,-5102.3623,-4881.8896,-4724.4097,-2866.1418,-2456.6929,-2740.1575,-5417.3228,-5543.307,-4818.8975,-5259.8423,-5322.8345,-5480.315,-5606.2993,-5228.3467,-5354.3306,-5228.3467,-5133.8584,-6078.74,-5795.2754,-6015.748,-6047.244,-6015.748,-5952.756,-5984.252,-5763.7793,-5543.307,-4787.4014,-5669.2915,-5196.8506,-4251.9683,-5354.3306,-5700.7876,-5700.7876,-5763.7793,-5732.2837,-5228.3467,-2236.2205,-850.3937,-94.48819,-62.992126,0.0,99999.0,99999.0,99999.0,99999.0,99999.0,99999.0,99999.0,99999.0,99999.0,99999.0,99999.0,99999.0,99999.0,0.0,0.0,0.0,0.0,99999.0,99999.0,99999.0,99999.0,-31.496063,-1984.252,-1259.8425,-1228.3464,-976.3779,-1291.3386,-1984.252,-3874.0159,-4598.4253,-4535.433,-3023.622,-3401.5747,-2866.1418,-3212.5984,-2771.6536,-4000.0,-4629.9214,-4503.937,-4125.9844
-1669.2914,0.0,-1417.3229,-1669.2914,-2488.189,-2960.63,-2551.1812,-2456.6929,-2803.1497,-3779.5276,-4314.9604,-4409.4487,-4314.9604,-4251.9683,-4188.9766,-4125.9844,-4031.496,-4000.0,-4000.0,-3811.0237,-3716.5354,-3811.0237,-3716.5354,-3685.0393,-3622.0474,-3622.0474,-3527.559,-3653.5432,-3559.0552,-3433.0708,-3401.5747,-3370.0789,-3086.6143,-3055.1182,-3086.6143,-3307.0867,-3496.063,-3622.0474,-3716.5354,-3716.5354,-3811.0237,-3559.0552,-4157.4805,-4031.496,-4094.4883,-3811.0237,-3212.5984,-3937.0078,-3842.5198,-4062.9922,-4031.496,-4314.9604,-4125.9844,-4314.9604,-4314.9604,-4346.4565,-4440.945,-4503.937,-4472.441,-4440.945,-4503.937,-4535.433,-4692.9136,-4661.4175,-4661.4175,-4598.4253,-4535.433,-4535.433,-3527.559,-2645.6692,-3401.5747,-4283.4644,-4346.4565,-1196.8503,99999.0,99999.0,99999.0,99999.0,99999.0,99999.0,99999.0,99999.0,99999.0,99999.0,99999.0,99999.0,99999.0,99999.0,99999.0,99999.0,99999.0,99999.0,99999.0,99999.0,99999.0,99999.0,99999.0,99999.0,99999.0,99999.0,99999.0,99999.0,99999.0,99999.0,99999.0,99999.0,99999.0,99999.0,-1133.8583,-3811.0237,-3874.0159,-4125.9844,-4346.4565,-4503.937,-4598.4253,-4692.9136,-4850.3936,-5007.874,-5039.37,-5228.3467,-5417.3228,-5385.8267,-5291.3384,-5039.37,-4976.378,-4787.4014,-4535.433,-4503.937,-4598.4253,-3937.0078,-3496.063,-3464.567,-3118.1104,-3149.6062,-3559.0552,-3496.063,-3685.0393,-3559.0552,-3968.504,-4000.0,-4000.0,-4188.9766,-4346.4565,-5007.874,-5543.307,-5007.874,-5039.37,-5039.37,-5133.8584,-5133.8584,-5070.866,-5039.37,-5039.37,-5070.866,-5007.874,-4724.4097,-4188.9766,-3307.0867,-62.992126,99999.0,99999.0,99999.0,99999.0,99999.0,99999.0,99999.0,99999.0,99999.0,99999.0,99999.0,99999.0,99999.0,99999.0,99999.0,99999.0,99999.0,99999.0,99999.0,99999.0,99999.0,99999.0,99999.0,99999.0,99999.0,99999.0,99999.0,99999.0,-1795.2756,-2677.1653,-2582.6772,-94.48819,99999.0,99999.0,99999.0,99999.0,99999.0,99999.0,-1606.2992,-4377.9526,-4535.433,-4598.4253,-4629.9214,-4503.937,-4472.441,-4125.9844,-3149.6062,-31.496063,-755.9055,-3496.063,-3527.559,-4000.0,-3181.1023,-3212.5984,-3842.5198,-3559.0552,-3086.6143,-4062.9922,-4503.937,-4472.441,-4818.8975,-5732.2837,-5039.37,-5007.874,-5007.874,-4850.3936,-4503.937,-4976.378,-5039.37,-5228.3467,-5354.3306,-5417.3228,-5259.8423,-5039.37,-4850.3936,-3023.622,-2078.7402,-5385.8267,-5448.819,-5165.3545,-5007.874,-5448.819,-4755.9053,-5889.7637,-5102.3623,-5480.315,-5669.2915,-5448.819,-6047.244,-6047.244,-6015.748,-6015.748,-6015.748,-5984.252,-6015.748,-5637.7954,-5511.811,-5700.7876,-5669.2915,-5007.874,-3559.0552,-2425.1968,-3653.5432,-3811.0237,-3968.504,-5574.803,-2236.2205,-850.3937,-346.4567,-62.992126,0.0,99999.0,99999.0,99999.0,99999.0,99999.0,99999.0,99999.0,99999.0,99999.0,99999.0,99999.0,99999.0,99999.0,99999.0,99999.0,0.0,0.0,0.0,99999.0,99999.0,99999.0,99999.0,0.0,-1511.811,-1354.3307,-472.44095,-503.937,-724.4094,-976.3779,-1826.7716,-3055.1182,-3338.5828,-3275.5906,-2803.1497,-2897.6377,-3527.559,-3181.1023,-4503.937,-4976.378,-3842.5198,-4377.9526
-3874.0159,-1574.8031,-4062.9922,-1259.8425,-1984.252,-3023.622,-3590.5513,-3401.5747,-2299.2126,-3118.1104,-3464.567,-4220.4727,-4251.9683,-4314.9604,-4314.9604,-4251.9683,-4220.4727,-4094.4883,-4094.4883,-4031.496,-3842.5198,-3811.0237,-3716.5354,-3685.0393,-3653.5432,-3685.0393,-3685.0393,-3622.0474,-3559.0552,-3433.0708,-3370.0789,-3307.0867,-3086.6143,-2897.6377,-3086.6143,-3307.0867,-3496.063,-3622.0474,-3685.0393,-3779.5276,-3905.5117,-3937.0078,-4000.0,-4094.4883,-4157.4805,-4188.9766,-4157.4805,-4346.4565,-4314.9604,-4283.4644,-4283.4644,-4283.4644,-4000.0,-4251.9683,-4314.9604,-4377.9526,-4409.4487,-4503.937,-4440.945,-4409.4487,-4440.945,-4472.441,-4535.433,-4566.929,-4566.929,-4535.433,-4472.441,-3559.0552,-3370.0789,-3622.0474,-4346.4565,-4409.4487,-4850.3936,-6614.1733,-1700.7874,-188.97638,99999.0,99999.0,99999.0,99999.0,99999.0,99999.0,99999.0,99999.0,99999.0,99999.0,99999.0,99999.0,99999.0,99999.0,99999.0,99999.0,99999.0,99999.0,99999.0,99999.0,99999.0,99999.0,99999.0,99999.0,99999.0,99999.0,99999.0,99999.0,99999.0,99999.0,99999.0,99999.0,-31.496063,-3181.1023,-3716.5354,-4125.9844,-4346.4565,-4472.441,-4535.433,-4598.4253,-4755.9053,-4944.882,-5070.866,-5322.8345,-5448.819,-5196.8506,-5511.811,-5007.874,-4818.8975,-5039.37,-4503.937,-4377.9526,-3968.504,-3779.5276,-3622.0474,-3086.6143,-2740.1575,-3338.5828,-3464.567,-3527.559,-3779.5276,-3527.559,-3496.063,-3937.0078,-4188.9766,-4440.945,-4661.4175,-5007.874,-5007.874,-5543.307,-5007.874,-5511.811,-5322.8345,-5102.3623,-5070.866,-5007.874,-5039.37,-5039.37,-5007.874,-4692.9136,-4346.4565,-3370.0789,-125.98425,99999.0,99999.0,99999.0,99999.0,99999.0,99999.0,99999.0,99999.0,99999.0,99999.0,99999.0,99999.0,99999.0,99999.0,99999.0,99999.0,99999.0,99999.0,99999.0,99999.0,99999.0,99999.0,99999.0,99999.0,99999.0,0.0,-220.47244,-2015.748,-2267.7166,-2614.1733,-2015.748,0.0,99999.0,99999.0,99999.0,99999.0,99999.0,-31.496063,-4031.496,-4535.433,-4598.4253,-4629.9214,-4503.937,-4598.4253,-3496.063,-4094.4883,-3464.567,-346.4567,-4031.496,-3275.5906,-3275.5906,-3622.0474,-2929.1338,-2960.63,-3055.1182,-2992.126,-3527.559,-4503.937,-4251.9683,-4503.937,-4440.945,-4724.4097,-5007.874,-4503.937,-4976.378,-4472.441,-5007.874,-5007.874,-5007.874,-5007.874,-5007.874,-5385.8267,-5322.8345,-4976.378,-4535.433,-2992.126,-2551.1812,-5259.8423,-5322.8345,-5007.874,-5480.315,-4787.4014,-5826.7715,-5606.2993,-5480.315,-5417.3228,-5984.252,-5574.803,-5511.811,-6015.748,-6015.748,-5921.26,-5826.7715,-5826.7715,-5889.7637,-5291.3384,-5511.811,-5543.307,-5291.3384,-5102.3623,-4661.4175,-1984.252,-2425.1968,-2992.126,-2173.2283,-2582.6772,-818.89764,-220.47244,-157.48032,-62.992126,99999.0,99999.0,99999.0,99999.0,99999.0,99999.0,99999.0,99999.0,99999.0,99999.0,99999.0,99999.0,99999.0,99999.0,99999.0,99999.0,99999.0,99999.0,0.0,99999.0,99999.0,99999.0,99999.0,99999.0,0.0,-1196.8503,-503.937,-503.937,0.0,-62.992126,-1448.8188,-2204.7244,-3023.622,-2173.2283,-2425.1968,-2960.63,-3559.0552,-4062.9922,-3212.5984,-4000.0,-4125.9844,-3401.5747
-4314.9604,-4629.9214,-3874.0159,-4472.441,-4377.9526,-3937.0078,-2204.7244,-3685.0393,-3401.5747,-3464.567,-1102.3622,-3149.6062,-3401.5747,-3748.0315,-4220.4727,-4283.4644,-4220.4727,-4094.4883,-4094.4883,-4031.496,-4125.9844,-3685.0393,-3748.0315,-3716.5354,-3622.0474,-3685.0393,-3653.5432,-3590.5513,-3527.559,-3401.5747,-3307.0867,-3212.5984,-3023.622,-3118.1104,-2992.126,-3307.0867,-3496.063,-3653.5432,-3716.5354,-3842.5198,-3937.0078,-4000.0,-4031.496,-4125.9844,-4157.4805,-4094.4883,-4188.9766,-4314.9604,-4157.4805,-4346.4565,-4125.9844,-4188.9766,-4157.4805,-4188.9766,-4283.4644,-4314.9604,-4377.9526,-4314.9604,-4346.4565,-4377.9526,-4409.4487,-4472.441,-4503.937,-4503.937,-4503.937,-4472.441,-4062.9922,-3055.1182,-4094.4883,-4283.4644,-4629.9214,-4031.496,-4283.4644,-4409.4487,-5574.803,-2488.189,-472.44095,99999.0,99999.0,99999.0,99999.0,99999.0,99999.0,99999.0,99999.0,99999.0,99999.0,99999.0,99999.0,99999.0,99999.0,99999.0,99999.0,99999.0,99999.0,99999.0,99999.0,99999.0,99999.0,99999.0,99999.0,99999.0,99999.0,99999.0,99999.0,99999.0,99999.0,0.0,-31.496063,-3370.0789,-3779.5276,-4000.0,-4346.4565,-4472.441,-4503.937,-4503.937,-4661.4175,-4944.882,-5007.874,-5070.866,-5480.315,-5511.811,-5511.811,-5574.803,-4976.378,-5007.874,-4755.9053,-4062.9922,-3937.0078,-4000.0,-3842.5198,-4062.9922,-3496.063,-3496.063,-3527.559,-3275.5906,-3496.063,-3622.0474,-3905.5117,-4314.9604,-4503.937,-4944.882,-4472.441,-5039.37,-5007.874,-5354.3306,-4472.441,-5102.3623,-5511.811,-5070.866,-5070.866,-5070.866,-5070.866,-5070.866,-5039.37,-4913.3857,-4440.945,-3685.0393,-409.44882,99999.0,99999.0,99999.0,99999.0,99999.0,99999.0,99999.0,99999.0,99999.0,99999.0,99999.0,99999.0,99999.0,99999.0,99999.0,99999.0,99999.0,99999.0,99999.0,99999.0,99999.0,99999.0,99999.0,99999.0,0.0,-787.40155,-2047.2441,-2456.6929,-2519.685,-2393.7007,-2047.2441,-125.98425,99999.0,99999.0,99999.0,99999.0,99999.0,-125.98425,-4220.4727,-4629.9214,-4692.9136,-4724.4097,-4724.4097,-4503.937,-4188.9766,-2992.126,-1669.2914,-3874.0159,-4031.496,-4031.496,-3496.063,-4000.0,-3212.5984,-2614.1733,-2992.126,-2992.126,-3496.063,-4000.0,-3968.504,-4000.0,-4062.9922,-4535.433,-4472.441,-4503.937,-5007.874,-4881.8896,-5480.315,-5007.874,-5007.874,-5007.874,-5228.3467,-5291.3384,-5007.874,-5007.874,-4976.378,-2677.1653,-3559.0552,-5007.874,-5007.874,-5448.819,-5480.315,-4944.882,-5511.811,-5480.315,-5511.811,-5511.811,-6015.748,-6015.748,-5984.252,-5952.756,-6015.748,-5700.7876,-5669.2915,-5637.7954,-5732.2837,-5637.7954,-5543.307,-5228.3467,-3968.504,-4503.937,-2708.6614,-1511.811,-1543.3071,-1606.2992,-944.8819,-440.9449,-157.48032,-125.98425,-62.992126,0.0,99999.0,99999.0,99999.0,99999.0,99999.0,99999.0,99999.0,99999.0,99999.0,99999.0,99999.0,99999.0,99999.0,99999.0,99999.0,99999.0,99999.0,99999.0,99999.0,99999.0,99999.0,99999.0,99999.0,99999.0,0.0,-31.496063,-944.8819,-1102.3622,-1259.8425,-1543.3071,-2078.7402,-2488.189,-2047.2441,-1984.252,-2677.1653,-3527.559,-1606.2992,-4377.9526,-3149.6062,-2960.63,-1889.7638,-1385.8268
-4503.937,-4377.9526,-4503.937,-4503.937,-4535.433,-4503.937,-2834.6458,-4220.4727,-4220.4727,-4157.4805,-3937.0078,-3622.0474,-3370.0789,-3433.0708,-3874.0159,-4220.4727,-4220.4727,-4094.4883,-4062.9922,-4031.496,-4062.9922,-3653.5432,-3716.5354,-3653.5432,-3685.0393,-3653.5432,-3622.0474,-3590.5513,-3527.559,-3401.5747,-3401.5747,-3338.5828,-3212.5984,-3055.1182,-3275.5906,-3433.0708,-3559.0552,-3653.5432,-3811.0237,-3874.0159,-3968.504,-4000.0,-4000.0,-4062.9922,-4188.9766,-4251.9683,-4283.4644,-4283.4644,-4346.4565,-4346.4565,-4377.9526,-4000.0,-4125.9844,-4094.4883,-4283.4644,-4314.9604,-4220.4727,-4283.4644,-4314.9604,-4346.4565,-4346.4565,-4472.441,-4503.937,-4503.937,-4346.4565,-3905.5117,-3496.063,-3968.504,-4220.4727,-4472.441,-4472.441,-4692.9136,-4944.882,-4598.4253,-4031.496,-6992.126,-755.9055,99999.0,99999.0,99999.0,99999.0,99999.0,99999.0,99999.0,99999.0,99999.0,99999.0,99999.0,99999.0,99999.0,99999.0,99999.0,99999.0,99999.0,99999.0,99999.0,99999.0,99999.0,99999.0,99999.0,99999.0,99999.0,99999.0,99999.0,99999.0,99999.0,99999.0,-31.496063,-283.46457,-3464.567,-3811.0237,-4220.4727,-4472.441,-4503.937,-4503.937,-4503.937,-4661.4175,-4913.3857,-5007.874,-5007.874,-5511.811,-5543.307,-5165.3545,-5543.307,-5007.874,-4976.378,-5007.874,-4629.9214,-4503.937,-4220.4727,-3842.5198,-3779.5276,-3559.0552,-3464.567,-2992.126,-2992.126,-3464.567,-3905.5117,-4125.9844,-4503.937,-4535.433,-4692.9136,-4944.882,-4976.378,-4944.882,-4724.4097,-5007.874,-5039.37,-5133.8584,-5133.8584,-5133.8584,-5102.3623,-5039.37,-5102.3623,-5007.874,-4724.4097,-2708.6614,-1354.3307,-440.9449,-94.48819,99999.0,99999.0,99999.0,99999.0,99999.0,99999.0,99999.0,99999.0,99999.0,99999.0,99999.0,99999.0,99999.0,99999.0,99999.0,99999.0,99999.0,99999.0,99999.0,99999.0,99999.0,99999.0,0.0,-31.496063,-1669.2914,-2267.7166,-2551.1812,-2551.1812,-2771.6536,-2204.7244,-1637.7953,99999.0,99999.0,99999.0,99999.0,99999.0,-2866.1418,-4535.433,-4692.9136,-4818.8975,-4881.8896,-4755.9053,-4125.9844,-4220.4727,-724.4094,-3086.6143,-5007.874,-4000.0,-2393.7007,-3527.559,-2330.7087,-2645.6692,-2519.685,-2834.6458,-3559.0552,-3464.567,-3559.0552,-3433.0708,-4000.0,-4062.9922,-4598.4253,-4440.945,-4535.433,-4787.4014,-4409.4487,-4944.882,-5007.874,-5039.37,-4976.378,-5165.3545,-5007.874,-5007.874,-5039.37,-4314.9604,-1952.7559,-3118.1104,-4472.441,-4976.378,-5259.8423,-4000.0,-5511.811,-5511.811,-5480.315,-5511.811,-5637.7954,-6015.748,-6015.748,-5984.252,-6015.748,-5984.252,-5543.307,-5511.811,-5511.811,-5511.811,-5417.3228,-5133.8584,-4409.4487,-4000.0,-2614.1733,-1511.811,-976.3779,-1417.3229,-440.9449,-94.48819,-62.992126,-31.496063,-31.496063,0.0,99999.0,99999.0,99999.0,99999.0,99999.0,99999.0,99999.0,99999.0,99999.0,99999.0,99999.0,99999.0,99999.0,99999.0,99999.0,99999.0,99999.0,99999.0,99999.0,99999.0,99999.0,99999.0,99999.0,99999.0,99999.0,99999.0,99999.0,-31.496063,-31.496063,-314.96063,-346.4567,-472.44095,-2267.7166,-2960.63,-3338.5828,-2614.1733,-2677.1653,-188.97638,-2236.2205,-2645.6692,-3527.559,-3590.5513,-31.496063
-4566.929,-4377.9526,-4000.0,-2929.1338,-4503.937,-4440.945,-4440.945,-2582.6772,-3496.063,-4062.9922,-4031.496,-4000.0,-4031.496,-3779.5276,-3842.5198,-4062.9922,-4094.4883,-3968.504,-3937.0078,-3905.5117,-3779.5276,-3716.5354,-3716.5354,-3685.0393,-3653.5432,-3622.0474,-3590.5513,-3559.0552,-3527.559,-3401.5747,-3370.0789,-3307.0867,-3244.0945,-3181.1023,-3370.0789,-3464.567,-3590.5513,-3685.0393,-3811.0237,-3874.0159,-3937.0078,-4000.0,-4000.0,-4031.496,-4125.9844,-4188.9766,-4188.9766,-4283.4644,-4251.9683,-4031.496,-4409.4487,-4188.9766,-4062.9922,-3968.504,-4188.9766,-4157.4805,-4188.9766,-4251.9683,-4283.4644,-4220.4727,-4251.9683,-4346.4565,-4503.937,-4440.945,-4125.9844,-2992.126,-2740.1575,-4346.4565,-4472.441,-4535.433,-5039.37,-4976.378,-4787.4014,-4692.9136,-4472.441,-5322.8345,-692.9134,99999.0,99999.0,99999.0,99999.0,99999.0,99999.0,99999.0,99999.0,99999.0,99999.0,99999.0,99999.0,99999.0,99999.0,99999.0,99999.0,99999.0,99999.0,99999.0,99999.0,99999.0,99999.0,99999.0,99999.0,99999.0,99999.0,99999.0,99999.0,99999.0,99999.0,-1921.2599,-2425.1968,-976.3779,-2519.685,-2992.126,-3433.0708,-4220.4727,-4251.9683,-4283.4644,-4818.8975,-4409.4487,-4881.8896,-5039.37,-5417.3228,-5511.811,-5543.307,-4976.378,-5007.874,-5007.874,-5007.874,-4629.9214,-4503.937,-4251.9683,-4031.496,-4850.3936,-3905.5117,-3496.063,-3779.5276,-2960.63,-3212.5984,-3937.0078,-4094.4883,-4503.937,-4472.441,-5039.37,-4913.3857,-5196.8506,-4881.8896,-5007.874,-4913.3857,-5511.811,-5417.3228,-5228.3467,-5133.8584,-5070.866,-4409.4487,-4535.433,-3118.1104,-2047.2441,-2141.7322,-1763.7795,-1102.3622,-251.9685,99999.0,99999.0,99999.0,99999.0,99999.0,99999.0,99999.0,99999.0,99999.0,99999.0,99999.0,99999.0,99999.0,99999.0,99999.0,99999.0,99999.0,99999.0,99999.0,99999.0,99999.0,99999.0,0.0,-1511.811,-2425.1968,-2677.1653,-2929.1338,-2803.1497,-2929.1338,-2488.189,-1385.8268,99999.0,99999.0,99999.0,99999.0,99999.0,-3811.0237,-4629.9214,-4755.9053,-4881.8896,-4913.3857,-4314.9604,-2866.1418,-4220.4727,0.0,-4472.441,-4031.496,-3905.5117,-3622.0474,-3496.063,-3023.622,-3023.622,-3181.1023,-2645.6692,-2992.126,-2330.7087,-2992.126,-3433.0708,-3937.0078,-3905.5117,-4503.937,-4503.937,-4503.937,-4503.937,-4440.945,-4787.4014,-5007.874,-4976.378,-4724.4097,-5007.874,-4629.9214,-4976.378,-4283.4644,-4000.0,-2141.7322,-3338.5828,-5007.874,-4787.4014,-4503.937,-5039.37,-5039.37,-5228.3467,-5259.8423,-5511.811,-5732.2837,-5984.252,-6015.748,-5574.803,-5669.2915,-5732.2837,-5228.3467,-5448.819,-5228.3467,-5543.307,-5070.866,-5102.3623,-5007.874,-4377.9526,-1606.2992,-1039.3701,-1039.3701,-881.8898,0.0,99999.0,0.0,99999.0,99999.0,99999.0,99999.0,99999.0,99999.0,99999.0,99999.0,99999.0,99999.0,99999.0,99999.0,99999.0,99999.0,99999.0,99999.0,99999.0,99999.0,99999.0,99999.0,99999.0,99999.0,99999.0,99999.0,99999.0,99999.0,99999.0,99999.0,99999.0,99999.0,99999.0,-31.496063,0.0,-251.9685,-346.4567,-1700.7874,-2803.1497,-3212.5984,-2393.7007,-1984.252,-188.97638,-2047.2441,-1165.3544,-850.3937,-3905.5117,-3779.5276
-4661.4175,-4440.945,-4440.945,-4472.441,-4503.937,-4409.4487,-3338.5828,-4346.4565,-3590.5513,-4062.9922,-1448.8188,0.0,-3653.5432,-3968.504,-3874.0159,-3811.0237,-3811.0237,-3779.5276,-3874.0159,-3874.0159,-3779.5276,-3716.5354,-3685.0393,-3653.5432,-3622.0474,-3590.5513,-3559.0552,-3527.559,-3464.567,-3401.5747,-3370.0789,-3275.5906,-3149.6062,-3275.5906,-3433.0708,-3527.559,-3590.5513,-3685.0393,-3779.5276,-3874.0159,-3905.5117,-3905.5117,-3905.5117,-4000.0,-4031.496,-4062.9922,-4188.9766,-4220.4727,-4157.4805,-4094.4883,-4220.4727,-4094.4883,-4094.4883,-4125.9844,-4062.9922,-4125.9844,-4314.9604,-4409.4487,-4283.4644,-4220.4727,-4220.4727,-4283.4644,-4346.4565,-4157.4805,-3055.1182,-1543.3071,-4251.9683,-4472.441,-4377.9526,-4755.9053,-4724.4097,-4976.378,-4629.9214,-4881.8896,-4409.4487,-5102.3623,-1889.7638,99999.0,99999.0,99999.0,99999.0,99999.0,99999.0,99999.0,99999.0,99999.0,99999.0,99999.0,99999.0,99999.0,99999.0,99999.0,99999.0,99999.0,99999.0,99999.0,99999.0,99999.0,99999.0,99999.0,99999.0,99999.0,99999.0,99999.0,99999.0,99999.0,0.0,-2015.748,-2992.126,-3748.0315,-4157.4805,-4409.4487,-4377.9526,-4440.945,-4503.937,-4535.433,-4913.3857,-5070.866,-5102.3623,-5196.8506,-5480.315,-5102.3623,-5322.8345,-5007.874,-4976.378,-4976.378,-5007.874,-4692.9136,-4503.937,-4503.937,-4503.937,-3968.504,-4031.496,-3464.567,-4000.0,-2708.6614,-4000.0,-4000.0,-4094.4883,-4503.937,-5039.37,-4598.4253,-4944.882,-5543.307,-4818.8975,-5102.3623,-5354.3306,-5511.811,-5511.811,-5259.8423,-4944.882,-4125.9844,-4125.9844,-3401.5747,-3023.622,-4125.9844,-3905.5117,-3433.0708,-2330.7087,-692.9134,-94.48819,99999.0,99999.0,99999.0,99999.0,99999.0,99999.0,99999.0,99999.0,99999.0,99999.0,99999.0,99999.0,99999.0,99999.0,99999.0,99999.0,99999.0,99999.0,99999.0,99999.0,99999.0,-31.496063,-1480.315,-3023.622,-3118.1104,-1984.252,-3055.1182,-3496.063,-2393.7007,99999.0,99999.0,99999.0,99999.0,99999.0,-125.98425,-4251.9683,-4692.9136,-4787.4014,-4787.4014,-3937.0078,-4094.4883,-1574.8031,-4031.496,-4251.9683,-4000.0,-4598.4253,-4283.4644,-4031.496,-4000.0,-4062.9922,-3559.0552,-3212.5984,-3433.0708,-3401.5747,-2897.6377,-2992.126,-3464.567,-4566.929,-4188.9766,-4692.9136,-4409.4487,-4472.441,-4440.945,-4503.937,-4692.9136,-4598.4253,-5385.8267,-5133.8584,-5007.874,-4472.441,-4472.441,-4409.4487,-4062.9922,-2677.1653,-3149.6062,-5039.37,-4881.8896,-4881.8896,-5007.874,-5007.874,-5039.37,-5007.874,-5165.3545,-5669.2915,-6015.748,-6047.244,-6078.74,-5889.7637,-5606.2993,-4062.9922,-3055.1182,-4724.4097,-5007.874,-4377.9526,-4692.9136,-5070.866,-5102.3623,-5039.37,-3653.5432,-1228.3464,-62.992126,99999.0,99999.0,99999.0,99999.0,99999.0,99999.0,99999.0,99999.0,99999.0,99999.0,99999.0,99999.0,99999.0,99999.0,99999.0,99999.0,99999.0,99999.0,99999.0,99999.0,99999.0,99999.0,99999.0,99999.0,99999.0,99999.0,99999.0,99999.0,99999.0,99999.0,99999.0,99999.0,99999.0,99999.0,0.0,-31.496063,0.0,0.0,-566.92914,-2551.1812,-3181.1023,-1039.3701,-1133.8583,-314.96063,-188.97638,-1795.2756,-1322.8346,-850.3937,-3527.559
-4787.4014,-4755.9053,-4818.8975,-4472.441,-4566.929,-3653.5432,-4314.9604,-4251.9683,-4283.4644,-4251.9683,-4094.4883,-4000.0,-3023.622,-2110.2363,-3716.5354,-3653.5432,-3559.0552,-3779.5276,-3842.5198,-3874.0159,-3748.0315,-3685.0393,-3653.5432,-3590.5513,-3527.559,-3527.559,-3527.559,-3496.063,-3401.5747,-3338.5828,-3275.5906,-3212.5984,-2992.126,-3370.0789,-3433.0708,-3590.5513,-3685.0393,-3685.0393,-3748.0315,-3842.5198,-3874.0159,-3905.5117,-3905.5117,-3968.504,-4000.0,-4000.0,-4031.496,-4031.496,-4031.496,-4000.0,-4000.0,-4000.0,-4000.0,-3905.5117,-4000.0,-4031.496,-4125.9844,-4094.4883,-4094.4883,-4125.9844,-4125.9844,-4125.9844,-4251.9683,-3842.5198,-1952.7559,-3716.5354,-4251.9683,-4629.9214,-4692.9136,-4692.9136,-4661.4175,-4818.8975,-4503.937,-4472.441,-3527.559,-5543.307,-1070.8661,99999.0,99999.0,99999.0,99999.0,99999.0,99999.0,99999.0,99999.0,99999.0,99999.0,99999.0,99999.0,99999.0,99999.0,99999.0,99999.0,99999.0,99999.0,99999.0,99999.0,99999.0,99999.0,99999.0,99999.0,99999.0,99999.0,99999.0,99999.0,-31.496063,-188.97638,-2362.2048,-3212.5984,-3307.0867,-4188.9766,-4440.945,-4503.937,-4535.433,-4566.929,-4818.8975,-5007.874,-5070.866,-5007.874,-5511.811,-5511.811,-5417.3228,-5480.315,-5070.866,-5007.874,-5007.874,-5007.874,-4535.433,-5070.866,-4503.937,-4251.9683,-4000.0,-3937.0078,-3842.5198,-4125.9844,-4000.0,-4000.0,-4031.496,-4346.4565,-4944.882,-4976.378,-5007.874,-5039.37,-4976.378,-5354.3306,-5070.866,-5102.3623,-5511.811,-5102.3623,-5070.866,-4976.378,-4598.4253,-1921.2599,-2582.6772,-2267.7166,-4251.9683,-4094.4883,-3779.5276,-3023.622,-1417.3229,-157.48032,99999.0,99999.0,99999.0,99999.0,99999.0,99999.0,99999.0,99999.0,99999.0,99999.0,99999.0,99999.0,99999.0,99999.0,99999.0,99999.0,99999.0,99999.0,99999.0,99999.0,99999.0,0.0,-1480.315,-3086.6143,-3149.6062,-3023.622,-3086.6143,-2960.63,-3086.6143,99999.0,99999.0,99999.0,99999.0,99999.0,-3055.1182,-4346.4565,-4944.882,-4787.4014,-5543.307,-4314.9604,-4031.496,-4000.0,-4440.945,-4503.937,-4503.937,-4535.433,-4472.441,-4125.9844,-4000.0,-4000.0,-4346.4565,-4000.0,-3527.559,-3496.063,-2929.1338,-3307.0867,-3275.5906,-4000.0,-4629.9214,-4220.4727,-4000.0,-4629.9214,-4629.9214,-4503.937,-4503.937,-4692.9136,-4818.8975,-4503.937,-4787.4014,-4661.4175,-4535.433,-4503.937,-4598.4253,-2645.6692,-4566.929,-5070.866,-4944.882,-4976.378,-5007.874,-5007.874,-5039.37,-5039.37,-5511.811,-5763.7793,-5637.7954,-5795.2754,-5669.2915,-5259.8423,-5480.315,-5385.8267,-2614.1733,-4850.3936,-5637.7954,-3496.063,-4220.4727,-5007.874,-5070.866,-5039.37,-3149.6062,-566.92914,99999.0,99999.0,99999.0,99999.0,99999.0,99999.0,99999.0,99999.0,99999.0,99999.0,99999.0,99999.0,99999.0,99999.0,99999.0,99999.0,99999.0,99999.0,99999.0,99999.0,99999.0,99999.0,99999.0,99999.0,99999.0,99999.0,99999.0,99999.0,99999.0,99999.0,99999.0,99999.0,99999.0,99999.0,99999.0,99999.0,99999.0,-31.496063,-125.98425,-283.46457,-1574.8031,-3433.0708,-1858.2677,-2141.7322,-2488.189,-976.3779,-1921.2599,-1480.315,-2015.748,-2015.748
-4503.937,-4535.433,-4724.4097,-4724.4097,-4724.4097,-4661.4175,-4440.945,-4377.9526,-4440.945,-4220.4727,-4188.9766,-3905.5117,-3307.0867,-3937.0078,-3622.0474,-3622.0474,-2582.6772,-3622.0474,-3779.5276,-3748.0315,-3622.0474,-3622.0474,-3527.559,-3433.0708,-3370.0789,-3401.5747,-3496.063,-3401.5747,-3338.5828,-3212.5984,-3023.622,-3055.1182,-3181.1023,-3464.567,-3464.567,-3496.063,-3590.5513,-3716.5354,-3779.5276,-3811.0237,-3842.5198,-3842.5198,-3842.5198,-3842.5198,-3842.5198,-3527.559,-3905.5117,-3811.0237,-3874.0159,-3968.504,-3905.5117,-3779.5276,-3842.5198,-3842.5198,-3905.5117,-3968.504,-4157.4805,-3401.5747,-4125.9844,-4000.0,-3968.504,-2551.1812,-3181.1023,-4000.0,-3716.5354,-4440.945,-4377.9526,-4566.929,-4661.4175,-4629.9214,-4503.937,-4503.937,-4503.937,-3874.0159,-4062.9922,-6362.2046,-62.992126,99999.0,99999.0,99999.0,99999.0,99999.0,99999.0,99999.0,99999.0,99999.0,99999.0,99999.0,99999.0,99999.0,99999.0,99999.0,99999.0,99999.0,99999.0,99999.0,99999.0,99999.0,99999.0,99999.0,99999.0,99999.0,-31.496063,-94.48819,-125.98425,-125.98425,-2582.6772,-3055.1182,-3433.0708,-3842.5198,-4125.9844,-4314.9604,-4440.945,-4535.433,-4976.378,-5039.37,-5070.866,-5070.866,-5259.8423,-5480.315,-5511.811,-5448.819,-5543.307,-5070.866,-4976.378,-5007.874,-5007.874,-4881.8896,-4535.433,-4566.929,-4251.9683,-3779.5276,-3653.5432,-3559.0552,-4031.496,-3968.504,-4000.0,-4503.937,-4503.937,-4566.929,-4818.8975,-5007.874,-5417.3228,-5007.874,-5354.3306,-5165.3545,-5448.819,-5291.3384,-5102.3623,-5007.874,-4598.4253,-3527.559,-2236.2205,-2488.189,-4692.9136,-4251.9683,-4314.9604,-3937.0078,-3212.5984,-1795.2756,-220.47244,99999.0,99999.0,99999.0,99999.0,99999.0,99999.0,99999.0,99999.0,99999.0,99999.0,99999.0,99999.0,99999.0,99999.0,99999.0,99999.0,99999.0,99999.0,99999.0,99999.0,99999.0,-31.496063,-2267.7166,-2992.126,-2992.126,-3275.5906,-3433.0708,-3496.063,-3307.0867,-976.3779,99999.0,99999.0,99999.0,99999.0,-3244.0945,-3685.0393,-4724.4097,-4944.882,-5291.3384,-4566.929,-4000.0,-4535.433,-5007.874,-4535.433,-4913.3857,-4535.433,-4031.496,-4188.9766,-3968.504,-4157.4805,-4031.496,-4031.496,-4000.0,-4094.4883,-3212.5984,-2897.6377,-3401.5747,-3559.0552,-4000.0,-4000.0,-4000.0,-4503.937,-3968.504,-4503.937,-4503.937,-4409.4487,-4503.937,-4566.929,-4503.937,-4503.937,-4692.9136,-4503.937,-4283.4644,-3023.622,-5039.37,-5039.37,-4724.4097,-4535.433,-5007.874,-5039.37,-5070.866,-5196.8506,-5480.315,-5795.2754,-5511.811,-5574.803,-5637.7954,-4692.9136,-5007.874,-5700.7876,-4283.4644,-5511.811,-5322.8345,-3779.5276,-2456.6929,-3464.567,-4913.3857,-3370.0789,-913.3858,-31.496063,99999.0,99999.0,99999.0,99999.0,99999.0,99999.0,99999.0,99999.0,99999.0,99999.0,99999.0,99999.0,99999.0,99999.0,99999.0,99999.0,99999.0,99999.0,99999.0,99999.0,99999.0,99999.0,99999.0,99999.0,99999.0,99999.0,99999.0,99999.0,99999.0,99999.0,99999.0,99999.0,99999.0,99999.0,99999.0,99999.0,99999.0,0.0,-314.96063,-692.9134,-1354.3307,-1889.7638,-1984.252,-2362.2048,-2677.1653,-1385.8268,-2047.2441,-1228.3464,-1984.252,-2456.6929
-4377.9526,-4377.9526,-4661.4175,-4724.4097,-4629.9214,-4724.4097,-4472.441,-4409.4487,-4346.4565,-4283.4644,-4094.4883,-4000.0,-3779.5276,-4125.9844,-3937.0078,-3716.5354,-3653.5432,-3653.5432,-2992.126,-3622.0474,-3527.559,-3244.0945,-2803.1497,-2960.63,-3212.5984,-3307.0867,-3307.0867,-3338.5828,-3244.0945,-2834.6458,-2771.6536,-3086.6143,-3464.567,-3496.063,-3181.1023,-2992.126,-3622.0474,-3716.5354,-3779.5276,-3590.5513,-3685.0393,-3685.0393,-3716.5354,-3716.5354,-3748.0315,-3685.0393,-3716.5354,-3716.5354,-3811.0237,-3685.0393,-3653.5432,-3811.0237,-3842.5198,-3685.0393,-3968.504,-3842.5198,-3716.5354,-3842.5198,-3905.5117,-4125.9844,-4188.9766,-3023.622,-4188.9766,-1385.8268,-4062.9922,-4188.9766,-4346.4565,-4440.945,-4503.937,-4503.937,-4440.945,-4472.441,-3464.567,-3811.0237,-4377.9526,-6834.6455,99999.0,99999.0,99999.0,99999.0,99999.0,99999.0,99999.0,99999.0,99999.0,99999.0,99999.0,99999.0,99999.0,99999.0,99999.0,99999.0,99999.0,99999.0,99999.0,99999.0,99999.0,99999.0,99999.0,99999.0,0.0,-62.992126,-220.47244,-1196.8503,-1763.7795,-2299.2126,-2992.126,-3338.5828,-3716.5354,-4031.496,-4125.9844,-4220.4727,-4503.937,-4881.8896,-4976.378,-5291.3384,-5133.8584,-5007.874,-5480.315,-5385.8267,-5070.866,-5039.37,-5007.874,-4976.378,-5007.874,-5007.874,-4598.4253,-4566.929,-4409.4487,-4472.441,-4000.0,-3937.0078,-3653.5432,-3559.0552,-2519.685,-3748.0315,-3968.504,-4094.4883,-4976.378,-4692.9136,-4724.4097,-5007.874,-5007.874,-5007.874,-4535.433,-4976.378,-4629.9214,-5165.3545,-5102.3623,-5039.37,-5007.874,-4125.9844,-1952.7559,-1322.8346,-3968.504,-4692.9136,-4472.441,-4157.4805,-3685.0393,-2582.6772,-409.44882,-31.496063,99999.0,99999.0,99999.0,99999.0,99999.0,99999.0,99999.0,99999.0,99999.0,99999.0,99999.0,99999.0,99999.0,99999.0,99999.0,99999.0,99999.0,99999.0,99999.0,99999.0,-251.9685,-2267.7166,-2960.63,-3370.0789,-3464.567,-3496.063,-3779.5276,-3622.0474,-2236.2205,99999.0,99999.0,99999.0,-31.496063,-4031.496,-4598.4253,-4913.3857,-5039.37,-5007.874,-4976.378,-4000.0,-4850.3936,-4881.8896,-5007.874,-5007.874,-5007.874,-5007.874,-4472.441,-4661.4175,-3968.504,-4440.945,-4031.496,-4062.9922,-4062.9922,-3212.5984,-2488.189,-2992.126,-3055.1182,-3496.063,-3496.063,-4000.0,-4031.496,-4062.9922,-4031.496,-4062.9922,-4566.929,-4062.9922,-4440.945,-4440.945,-4503.937,-4503.937,-4535.433,-4220.4727,-1984.252,-2708.6614,-5133.8584,-4472.441,-5007.874,-5039.37,-5039.37,-5070.866,-5165.3545,-5354.3306,-5480.315,-5480.315,-5543.307,-5637.7954,-4503.937,-5102.3623,-5259.8423,-5007.874,-3905.5117,-5511.811,-3055.1182,-2614.1733,-3842.5198,-3433.0708,-1228.3464,-125.98425,99999.0,99999.0,99999.0,99999.0,99999.0,99999.0,99999.0,99999.0,99999.0,99999.0,99999.0,99999.0,99999.0,99999.0,99999.0,99999.0,99999.0,99999.0,99999.0,99999.0,99999.0,99999.0,99999.0,99999.0,99999.0,99999.0,99999.0,99999.0,99999.0,99999.0,99999.0,99999.0,99999.0,99999.0,99999.0,99999.0,99999.0,99999.0,99999.0,0.0,-1133.8583,-4125.9844,-4283.4644,-2488.189,-2614.1733,-2677.1653,-2015.748,-1732.2834,-1259.8425,-1259.8425,-2488.189
-4188.9766,-4062.9922,-4440.945,-4503.937,-4503.937,-4472.441,-4440.945,-4409.4487,-4346.4565,-4283.4644,-4188.9766,-4157.4805,-4125.9844,-4125.9844,-4062.9922,-3968.504,-3874.0159,-3685.0393,-3748.0315,-3716.5354,-3590.5513,-3590.5513,-3433.0708,-3370.0789,-3275.5906,-3275.5906,-3401.5747,-2740.1575,-3244.0945,-2488.189,-2803.1497,-2929.1338,-3055.1182,-2992.126,-2834.6458,-2992.126,-3464.567,-3464.567,-3527.559,-3527.559,-3622.0474,-3653.5432,-3559.0552,-3023.622,-3590.5513,-3559.0552,-3370.0789,-3338.5828,-3811.0237,-3118.1104,-3275.5906,-3653.5432,-3149.6062,-3338.5828,-2299.2126,-3433.0708,-3716.5354,-3811.0237,-4031.496,-3716.5354,-3653.5432,-1385.8268,-3653.5432,-3370.0789,-2330.7087,-4125.9844,-4188.9766,-4188.9766,-4220.4727,-3968.504,-4440.945,-3181.1023,-3779.5276,-4440.945,-4346.4565,-6929.134,99999.0,99999.0,99999.0,99999.0,99999.0,99999.0,99999.0,99999.0,99999.0,99999.0,99999.0,99999.0,99999.0,99999.0,99999.0,99999.0,99999.0,99999.0,99999.0,99999.0,99999.0,99999.0,99999.0,-31.496063,-94.48819,-157.48032,-1858.2677,-2173.2283,-2330.7087,-2645.6692,-2992.126,-3527.559,-4031.496,-4188.9766,-4188.9766,-4188.9766,-4566.929,-4755.9053,-4787.4014,-5259.8423,-5543.307,-5606.2993,-5354.3306,-5070.866,-5007.874,-5007.874,-4881.8896,-5007.874,-5007.874,-4944.882,-4535.433,-4535.433,-4535.433,-4283.4644,-4000.0,-4031.496,-2960.63,-3685.0393,-3842.5198,-3433.0708,-4000.0,-4000.0,-4503.937,-4314.9604,-4503.937,-4503.937,-4692.9136,-4976.378,-4850.3936,-4787.4014,-4787.4014,-5102.3623,-5007.874,-5007.874,-4850.3936,-4251.9683,-2078.7402,-1763.7795,-4346.4565,-4724.4097,-4566.929,-4409.4487,-4031.496,-3055.1182,-692.9134,-125.98425,99999.0,99999.0,99999.0,99999.0,99999.0,99999.0,99999.0,99999.0,99999.0,99999.0,99999.0,99999.0,99999.0,99999.0,99999.0,99999.0,99999.0,99999.0,-251.9685,-314.96063,-1196.8503,-2110.2363,-3527.559,-3937.0078,-4000.0,-4062.9922,-4062.9922,-4000.0,-3590.5513,-31.496063,99999.0,-94.48819,-2236.2205,-4535.433,-4881.8896,-5007.874,-5039.37,-5007.874,-4976.378,-5007.874,-5007.874,-5007.874,-5228.3467,-5070.866,-5259.8423,-5070.866,-5291.3384,-4944.882,-4440.945,-4566.929,-4440.945,-4503.937,-3905.5117,-3685.0393,-3023.622,-2992.126,-3023.622,-3968.504,-3496.063,-3968.504,-4472.441,-4062.9922,-4472.441,-4503.937,-4251.9683,-4031.496,-4220.4727,-4377.9526,-4440.945,-4503.937,-4503.937,-3874.0159,-1511.811,-2866.1418,-5070.866,-4503.937,-4976.378,-4850.3936,-5007.874,-5007.874,-5039.37,-5133.8584,-5259.8423,-5322.8345,-5007.874,-1952.7559,-4503.937,-5039.37,-5070.866,-5007.874,-4944.882,-5543.307,-5543.307,-4314.9604,-3842.5198,-3275.5906,-1165.3544,-94.48819,0.0,99999.0,99999.0,99999.0,99999.0,99999.0,99999.0,99999.0,99999.0,99999.0,99999.0,99999.0,99999.0,99999.0,99999.0,99999.0,99999.0,99999.0,99999.0,99999.0,99999.0,99999.0,99999.0,99999.0,99999.0,99999.0,99999.0,99999.0,99999.0,99999.0,99999.0,99999.0,99999.0,99999.0,99999.0,99999.0,99999.0,99999.0,99999.0,99999.0,-31.496063,-4503.937,-4661.4175,-4598.4253,-3496.063,-3023.622,-377.95276,-1732.2834,-1228.3464,-1228.3464,-1732.2834
-2960.63,-3023.622,-3496.063,-4157.4805,-4188.9766,-4251.9683,-4346.4565,-4377.9526,-4314.9604,-4283.4644,-4220.4727,-4188.9766,-4188.9766,-4157.4805,-4125.9844,-4062.9922,-4000.0,-3905.5117,-3874.0159,-3811.0237,-3748.0315,-3653.5432,-3653.5432,-3590.5513,-3559.0552,-3181.1023,-3496.063,-3496.063,-3464.567,-3401.5747,-3433.0708,-2897.6377,-3086.6143,-2960.63,-2488.189,-2960.63,-2897.6377,-3212.5984,-3338.5828,-3118.1104,-2488.189,-2236.2205,-3118.1104,-3401.5747,-3559.0552,-3086.6143,-3622.0474,-3622.0474,-3653.5432,-3685.0393,-3685.0393,-3685.0393,-3590.5513,-3590.5513,-3118.1104,-3716.5354,-3811.0237,-3842.5198,-3590.5513,-3370.0789,-3685.0393,-3842.5198,-3968.504,-3968.504,-3590.5513,-3685.0393,-4094.4883,-3937.0078,-4283.4644,-4188.9766,-4062.9922,-4377.9526,-4094.4883,-3937.0078,-4377.9526,-6362.2046,99999.0,99999.0,99999.0,99999.0,99999.0,99999.0,99999.0,99999.0,99999.0,99999.0,99999.0,99999.0,99999.0,99999.0,99999.0,99999.0,99999.0,99999.0,99999.0,99999.0,99999.0,99999.0,0.0,-62.992126,-251.9685,-2015.748,-2488.189,-2456.6929,-2488.189,-2488.189,-3244.0945,-4062.9922,-4283.4644,-4314.9604,-4409.4487,-4409.4487,-4535.433,-4598.4253,-4472.441,-4944.882,-5070.866,-5543.307,-5511.811,-5543.307,-5385.8267,-4944.882,-5007.874,-4913.3857,-4440.945,-4472.441,-4472.441,-4503.937,-4220.4727,-4503.937,-3968.504,-3496.063,-3118.1104,-2897.6377,-3496.063,-3874.0159,-3937.0078,-4000.0,-4062.9922,-3968.504,-4157.4805,-4346.4565,-4503.937,-4472.441,-4566.929,-4850.3936,-5070.866,-4850.3936,-4881.8896,-4881.8896,-2677.1653,-2425.1968,-1543.3071,-4031.496,-4787.4014,-4850.3936,-4755.9053,-4598.4253,-4220.4727,-3275.5906,-1007.874,-220.47244,99999.0,99999.0,99999.0,99999.0,99999.0,99999.0,99999.0,99999.0,99999.0,99999.0,99999.0,99999.0,99999.0,99999.0,99999.0,99999.0,99999.0,99999.0,-661.4173,-1039.3701,-1543.3071,-1984.252,-4377.9526,-4503.937,-4472.441,-4377.9526,-4314.9604,-4188.9766,-3464.567,-2519.685,-1511.811,-2047.2441,-2708.6614,-4503.937,-5007.874,-5007.874,-5102.3623,-5448.819,-5480.315,-5448.819,-5039.37,-5039.37,-5448.819,-5228.3467,-5102.3623,-5574.803,-5543.307,-4692.9136,-4787.4014,-4503.937,-4503.937,-3527.559,-3496.063,-3496.063,-3370.0789,-3590.5513,-3685.0393,-2992.126,-3023.622,-3370.0789,-3716.5354,-4000.0,-4440.945,-4094.4883,-4157.4805,-4000.0,-4062.9922,-4188.9766,-4409.4487,-4472.441,-4503.937,-3433.0708,-1984.252,-3716.5354,-4535.433,-4787.4014,-4913.3857,-4661.4175,-4818.8975,-4787.4014,-4976.378,-5007.874,-5007.874,-5039.37,-4157.4805,-4661.4175,-4881.8896,-5007.874,-4976.378,-4976.378,-5007.874,-5007.874,-5511.811,-5511.811,-5291.3384,-4157.4805,-1511.811,-377.95276,99999.0,99999.0,99999.0,99999.0,99999.0,99999.0,99999.0,99999.0,99999.0,99999.0,99999.0,99999.0,99999.0,99999.0,99999.0,99999.0,99999.0,99999.0,99999.0,99999.0,99999.0,99999.0,99999.0,99999.0,99999.0,99999.0,99999.0,99999.0,99999.0,99999.0,99999.0,99999.0,99999.0,99999.0,99999.0,99999.0,99999.0,99999.0,99999.0,99999.0,-31.496063,-4629.9214,-4724.4097,-4661.4175,-3496.063,-3527.559,-2425.1968,-1732.2834,-1448.8188,-1228.3464,-1385.8268
-4409.4487,-4031.496,-1354.3307,-3118.1104,-3622.0474,-4094.4883,-4220.4727,-4314.9604,-4314.9604,-4283.4644,-4251.9683,-4220.4727,-4220.4727,-4220.4727,-4220.4727,-4157.4805,-4094.4883,-4031.496,-3937.0078,-3811.0237,-3842.5198,-3779.5276,-3716.5354,-3685.0393,-3590.5513,-3622.0474,-3590.5513,-3559.0552,-3527.559,-3496.063,-3401.5747,-3244.0945,-2992.126,-2677.1653,-2519.685,-2866.1418,-2803.1497,-2992.126,-3275.5906,-2677.1653,-2551.1812,-2708.6614,-3307.0867,-3275.5906,-3023.622,-3307.0867,-3181.1023,-3590.5513,-3590.5513,-3653.5432,-3307.0867,-3716.5354,-3622.0474,-3622.0474,-3622.0474,-3622.0474,-3590.5513,-3496.063,-3401.5747,-3401.5747,-3779.5276,-3842.5198,-3874.0159,-3905.5117,-3968.504,-3968.504,-4094.4883,-4000.0,-4157.4805,-4157.4805,-4094.4883,-4062.9922,-4157.4805,-4125.9844,-4220.4727,-3401.5747,99999.0,99999.0,99999.0,99999.0,99999.0,99999.0,99999.0,99999.0,99999.0,99999.0,99999.0,99999.0,99999.0,99999.0,99999.0,99999.0,99999.0,99999.0,99999.0,99999.0,99999.0,99999.0,99999.0,-157.48032,-1543.3071,-2456.6929,-2992.126,-2803.1497,-2708.6614,-3023.622,-3212.5984,-4031.496,-4283.4644,-4535.433,-4535.433,-4440.945,-4062.9922,-4535.433,-4535.433,-5039.37,-4787.4014,-5480.315,-5637.7954,-5007.874,-5007.874,-4881.8896,-4787.4014,-4881.8896,-4598.4253,-4472.441,-4503.937,-4472.441,-4094.4883,-4031.496,-3559.0552,-3496.063,-3464.567,-3086.6143,-3055.1182,-3496.063,-3653.5432,-4062.9922,-4000.0,-3968.504,-4440.945,-4251.9683,-4503.937,-4503.937,-4503.937,-4503.937,-5007.874,-4503.937,-4661.4175,-4220.4727,-2456.6929,-4535.433,-4787.4014,-4881.8896,-5007.874,-4944.882,-4881.8896,-4692.9136,-4440.945,-3748.0315,-2141.7322,-377.95276,99999.0,99999.0,99999.0,99999.0,99999.0,99999.0,99999.0,99999.0,99999.0,99999.0,99999.0,99999.0,99999.0,99999.0,99999.0,99999.0,99999.0,99999.0,-1322.8346,-1511.811,-1732.2834,-1921.2599,-4724.4097,-4724.4097,-4629.9214,-4535.433,-4503.937,-4409.4487,-4125.9844,-1952.7559,-1952.7559,-1543.3071,-2204.7244,-3086.6143,-4881.8896,-5007.874,-5039.37,-5480.315,-5448.819,-5165.3545,-5007.874,-5070.866,-5039.37,-5039.37,-4692.9136,-5039.37,-4818.8975,-4000.0,-3433.0708,-2897.6377,-3937.0078,-3874.0159,-3527.559,-3937.0078,-3905.5117,-4031.496,-3496.063,-2992.126,-2929.1338,-3433.0708,-3496.063,-4377.9526,-4094.4883,-4000.0,-4125.9844,-4000.0,-4188.9766,-4157.4805,-4377.9526,-4314.9604,-4125.9844,-4062.9922,-1952.7559,-3401.5747,-4503.937,-4503.937,-4818.8975,-4094.4883,-4566.929,-4503.937,-4346.4565,-4503.937,-4409.4487,-3433.0708,-4535.433,-4535.433,-4724.4097,-4818.8975,-4787.4014,-4881.8896,-5007.874,-5543.307,-5480.315,-5511.811,-5574.803,-5574.803,-3590.5513,-818.89764,-94.48819,99999.0,99999.0,99999.0,99999.0,99999.0,99999.0,99999.0,99999.0,99999.0,99999.0,99999.0,99999.0,99999.0,99999.0,99999.0,99999.0,99999.0,99999.0,99999.0,99999.0,99999.0,99999.0,99999.0,99999.0,99999.0,99999.0,99999.0,99999.0,99999.0,99999.0,99999.0,99999.0,99999.0,99999.0,99999.0,99999.0,99999.0,99999.0,99999.0,0.0,-3590.5513,-4692.9136,-4661.4175,-3023.622,-3055.1182,-3433.0708,-2173.2283,-1637.7953,-1322.8346,-1417.3229
-4503.937,-4503.937,-4535.433,-3748.0315,-3716.5354,-4031.496,-3716.5354,-3937.0078,-4283.4644,-4283.4644,-4283.4644,-4220.4727,-4220.4727,-4251.9683,-4251.9683,-4251.9683,-4157.4805,-4062.9922,-4000.0,-4000.0,-3968.504,-3779.5276,-3779.5276,-3716.5354,-3685.0393,-3590.5513,-3590.5513,-3559.0552,-3527.559,-3496.063,-3370.0789,-3212.5984,-3023.622,-3086.6143,-2929.1338,-2960.63,-2992.126,-2992.126,-3086.6143,-3212.5984,-2992.126,-2960.63,-3338.5828,-3244.0945,-3370.0789,-3527.559,-3590.5513,-3559.0552,-3716.5354,-3716.5354,-3653.5432,-3653.5432,-3748.0315,-3590.5513,-3527.559,-3149.6062,-3023.622,-3212.5984,-3590.5513,-3559.0552,-3842.5198,-3811.0237,-3874.0159,-3905.5117,-4000.0,-4000.0,-4125.9844,-3779.5276,-4094.4883,-3968.504,-4346.4565,-4409.4487,-4314.9604,-4220.4727,-4724.4097,-1511.811,99999.0,99999.0,99999.0,99999.0,99999.0,99999.0,99999.0,99999.0,99999.0,99999.0,99999.0,99999.0,99999.0,99999.0,99999.0,99999.0,99999.0,99999.0,99999.0,99999.0,99999.0,99999.0,-62.992126,-157.48032,-2110.2363,-2992.126,-3590.5513,-3716.5354,-3212.5984,-4125.9844,-4000.0,-4031.496,-4314.9604,-4346.4565,-4283.4644,-4125.9844,-4062.9922,-3464.567,-3811.0237,-2708.6614,-3086.6143,-3181.1023,-5133.8584,-5007.874,-5007.874,-5007.874,-5007.874,-4944.882,-4692.9136,-4503.937,-4566.929,-4314.9604,-4062.9922,-4000.0,-4000.0,-3559.0552,-3527.559,-2929.1338,-2960.63,-3275.5906,-3905.5117,-4000.0,-4000.0,-4031.496,-4283.4644,-4409.4487,-4440.945,-4535.433,-4566.929,-4472.441,-4503.937,-4503.937,-4377.9526,-3590.5513,-2425.1968,-5039.37,-5007.874,-5007.874,-5007.874,-5039.37,-4944.882,-4724.4097,-4409.4487,-3716.5354,-2488.189,-283.46457,-125.98425,99999.0,99999.0,99999.0,99999.0,99999.0,99999.0,99999.0,99999.0,99999.0,99999.0,99999.0,99999.0,99999.0,99999.0,99999.0,99999.0,-157.48032,-1858.2677,-1952.7559,-2488.189,-3055.1182,-4913.3857,-4850.3936,-4724.4097,-4629.9214,-4535.433,-4535.433,-4000.0,-2488.189,-2740.1575,-3023.622,-2992.126,-2330.7087,-3842.5198,-5039.37,-5007.874,-5165.3545,-5007.874,-5007.874,-4976.378,-5039.37,-5700.7876,-4503.937,-4409.4487,-3464.567,-3496.063,-3527.559,-3842.5198,-4692.9136,-3559.0552,-3968.504,-4503.937,-4314.9604,-4000.0,-3937.0078,-4000.0,-3496.063,-3527.559,-4031.496,-3496.063,-3559.0552,-4094.4883,-4000.0,-4094.4883,-4031.496,-4283.4644,-4125.9844,-4157.4805,-4125.9844,-4031.496,-4000.0,-3937.0078,-2834.6458,-4031.496,-4094.4883,-4409.4487,-3937.0078,-3464.567,-3023.622,-3055.1182,-4094.4883,-4125.9844,-1322.8346,-3716.5354,-4409.4487,-4629.9214,-3401.5747,-4503.937,-5102.3623,-5039.37,-5165.3545,-5039.37,-5322.8345,-5574.803,-5606.2993,-5385.8267,-2897.6377,-62.992126,0.0,99999.0,99999.0,99999.0,99999.0,99999.0,99999.0,99999.0,99999.0,99999.0,99999.0,99999.0,99999.0,99999.0,99999.0,99999.0,99999.0,99999.0,99999.0,99999.0,99999.0,99999.0,99999.0,99999.0,99999.0,99999.0,99999.0,99999.0,99999.0,99999.0,99999.0,99999.0,99999.0,99999.0,99999.0,99999.0,99999.0,99999.0,99999.0,99999.0,-3622.0474,-1511.811,-4755.9053,-4125.9844,-2897.6377,-3275.5906,-2047.2441,-1511.811,-1511.811,-1480.315
-4724.4097,-4692.9136,-4661.4175,-4598.4253,-4377.9526,-4283.4644,-4188.9766,-4283.4644,-4283.4644,-4251.9683,-4220.4727,-4220.4727,-4220.4727,-4283.4644,-4283.4644,-4283.4644,-4220.4727,-4125.9844,-4094.4883,-4000.0,-3968.504,-3905.5117,-3779.5276,-3748.0315,-3716.5354,-3685.0393,-3653.5432,-3590.5513,-3622.0474,-3433.0708,-3370.0789,-3212.5984,-3086.6143,-2960.63,-2897.6377,-2929.1338,-2992.126,-3023.622,-3149.6062,-3275.5906,-3307.0867,-3149.6062,-3496.063,-3590.5513,-3622.0474,-3590.5513,-3622.0474,-3464.567,-3748.0315,-3685.0393,-3748.0315,-3748.0315,-3716.5354,-3716.5354,-3590.5513,-3527.559,-3527.559,-3590.5513,-3716.5354,-3748.0315,-3811.0237,-4000.0,-3811.0237,-3905.5117,-3968.504,-4062.9922,-4094.4883,-4062.9922,-3937.0078,-4377.9526,-4409.4487,-4377.9526,-4409.4487,-4440.945,-5700.7876,-409.44882,99999.0,99999.0,99999.0,99999.0,99999.0,99999.0,99999.0,99999.0,99999.0,99999.0,99999.0,99999.0,99999.0,99999.0,99999.0,99999.0,99999.0,99999.0,99999.0,99999.0,99999.0,-31.496063,-125.98425,-1196.8503,-2299.2126,-3307.0867,-3622.0474,-3905.5117,-4000.0,-3874.0159,-4000.0,-4125.9844,-4314.9604,-4031.496,-3275.5906,-3527.559,-2393.7007,-3527.559,-2960.63,-3842.5198,-3622.0474,-2834.6458,-4062.9922,-4629.9214,-4692.9136,-5007.874,-4503.937,-4503.937,-4503.937,-4503.937,-4503.937,-4377.9526,-4000.0,-4000.0,-4000.0,-3968.504,-3338.5828,-2551.1812,-3496.063,-3527.559,-3842.5198,-4000.0,-4000.0,-4251.9683,-4409.4487,-4472.441,-4503.937,-4472.441,-4503.937,-4503.937,-4535.433,-4094.4883,-3685.0393,-2582.6772,-4881.8896,-5007.874,-5007.874,-5070.866,-5039.37,-5039.37,-4976.378,-4598.4253,-4094.4883,-3527.559,-2614.1733,-661.4173,-157.48032,-125.98425,99999.0,99999.0,99999.0,99999.0,99999.0,99999.0,99999.0,99999.0,99999.0,99999.0,99999.0,99999.0,99999.0,99999.0,-62.992126,-1574.8031,-2519.685,-2551.1812,-1952.7559,-2960.63,-5007.874,-4913.3857,-4850.3936,-4724.4097,-4535.433,-4251.9683,-3149.6062,-2015.748,-2582.6772,-2456.6929,-2992.126,-3149.6062,-4535.433,-4881.8896,-5007.874,-4913.3857,-4755.9053,-4755.9053,-4503.937,-4944.882,-4598.4253,-5007.874,-4188.9766,-2677.1653,-3496.063,-4850.3936,-4440.945,-4251.9683,-4850.3936,-4409.4487,-4188.9766,-4409.4487,-4566.929,-3968.504,-4031.496,-4000.0,-3559.0552,-3181.1023,-3559.0552,-3496.063,-3527.559,-4000.0,-4094.4883,-4000.0,-4314.9604,-4000.0,-4062.9922,-4000.0,-4000.0,-4000.0,-2519.685,-2456.6929,-3023.622,-2803.1497,-2960.63,-3527.559,-2456.6929,-2551.1812,-2834.6458,-3118.1104,-3653.5432,-2236.2205,-3401.5747,-4220.4727,-4629.9214,-4755.9053,-4787.4014,-5007.874,-4566.929,-5039.37,-5007.874,-5259.8423,-5543.307,-5511.811,-5354.3306,-5039.37,-2551.1812,-31.496063,99999.0,99999.0,99999.0,99999.0,99999.0,99999.0,99999.0,99999.0,99999.0,99999.0,99999.0,99999.0,99999.0,99999.0,99999.0,99999.0,99999.0,99999.0,99999.0,99999.0,99999.0,99999.0,99999.0,99999.0,99999.0,99999.0,99999.0,99999.0,99999.0,99999.0,99999.0,99999.0,99999.0,99999.0,99999.0,99999.0,99999.0,99999.0,-31.496063,-4629.9214,-4787.4014,-4818.8975,-3370.0789,-2488.189,-2897.6377,-1637.7953,-1322.8346,-1228.3464,-1637.7953
-4913.3857,-4913.3857,-4944.882,-4850.3936,-4755.9053,-4472.441,-4377.9526,-4188.9766,-4314.9604,-4220.4727,-4220.4727,-4220.4727,-4314.9604,-4314.9604,-4251.9683,-4283.4644,-4220.4727,-4094.4883,-4062.9922,-3937.0078,-3968.504,-3874.0159,-3779.5276,-3748.0315,-3716.5354,-3716.5354,-3685.0393,-3653.5432,-3527.559,-3433.0708,-3370.0789,-3244.0945,-3086.6143,-2929.1338,-2866.1418,-2771.6536,-2992.126,-3055.1182,-3181.1023,-3275.5906,-3307.0867,-3433.0708,-3527.559,-3464.567,-3590.5513,-3622.0474,-3653.5432,-3590.5513,-3527.559,-3748.0315,-3811.0237,-3779.5276,-3685.0393,-3748.0315,-3527.559,-3559.0552,-3433.0708,-3685.0393,-3559.0552,-3748.0315,-3779.5276,-3937.0078,-3937.0078,-3905.5117,-4000.0,-4000.0,-4000.0,-3118.1104,-4377.9526,-4314.9604,-4377.9526,-4503.937,-4377.9526,-4283.4644,-6047.244,99999.0,99999.0,99999.0,99999.0,99999.0,99999.0,99999.0,99999.0,99999.0,99999.0,99999.0,99999.0,99999.0,99999.0,99999.0,99999.0,99999.0,99999.0,99999.0,99999.0,99999.0,99999.0,-94.48819,-346.4567,-1858.2677,-3118.1104,-3370.0789,-3464.567,-3622.0474,-3748.0315,-3716.5354,-4000.0,-4535.433,-3653.5432,-2488.189,-1480.315,-913.3858,-1133.8583,-1889.7638,-3559.0552,-4062.9922,-3811.0237,-2141.7322,-3464.567,-4472.441,-4503.937,-4503.937,-4503.937,-4503.937,-4503.937,-4472.441,-4125.9844,-4094.4883,-4000.0,-3968.504,-3685.0393,-3433.0708,-3275.5906,-2047.2441,-3212.5984,-3527.559,-3685.0393,-3937.0078,-4000.0,-4000.0,-4566.929,-4503.937,-4503.937,-4503.937,-4503.937,-4472.441,-4566.929,-2488.189,-4031.496,-2992.126,-3716.5354,-5007.874,-5039.37,-5070.866,-5070.866,-5007.874,-4913.3857,-4661.4175,-4283.4644,-3653.5432,-2992.126,-1637.7953,-346.4567,-220.47244,99999.0,99999.0,99999.0,99999.0,99999.0,99999.0,99999.0,99999.0,99999.0,99999.0,99999.0,99999.0,99999.0,99999.0,-2803.1497,-2897.6377,-2897.6377,-2708.6614,-1952.7559,-2173.2283,-5007.874,-4976.378,-4913.3857,-4787.4014,-4503.937,-3937.0078,-1889.7638,-2425.1968,-1984.252,-2110.2363,-3055.1182,-4535.433,-4598.4253,-4913.3857,-5007.874,-4818.8975,-4818.8975,-4031.496,-4409.4487,-4440.945,-4000.0,-4503.937,-3527.559,-4000.0,-4629.9214,-4661.4175,-4661.4175,-4503.937,-4661.4175,-4062.9922,-4377.9526,-4503.937,-3968.504,-4535.433,-4125.9844,-4346.4565,-4062.9922,-3433.0708,-2992.126,-3527.559,-3622.0474,-3622.0474,-3937.0078,-4000.0,-4000.0,-4000.0,-4125.9844,-4000.0,-4000.0,-2708.6614,-2141.7322,-2047.2441,-1826.7716,-2141.7322,-2551.1812,-2015.748,-2078.7402,-1795.2756,-2110.2363,-2456.6929,-3086.6143,-2488.189,-2488.189,-3653.5432,-4125.9844,-4535.433,-5007.874,-5165.3545,-5574.803,-5102.3623,-5102.3623,-5039.37,-5385.8267,-5385.8267,-5165.3545,-5039.37,-4913.3857,-755.9055,99999.0,99999.0,99999.0,99999.0,99999.0,99999.0,99999.0,99999.0,99999.0,99999.0,99999.0,99999.0,99999.0,99999.0,99999.0,99999.0,99999.0,99999.0,99999.0,99999.0,99999.0,99999.0,99999.0,99999.0,99999.0,99999.0,99999.0,99999.0,99999.0,99999.0,99999.0,99999.0,99999.0,99999.0,99999.0,99999.0,99999.0,99999.0,-1921.2599,-4503.937,-4629.9214,-4787.4014,-2456.6929,-3338.5828,-1700.7874,-1291.3386,-1228.3464,-1196.8503,-1322.8346
-4976.378,-5007.874,-5007.874,-5007.874,-4881.8896,-4755.9053,-4503.937,-4440.945,-4409.4487,-4251.9683,-4283.4644,-4220.4727,-4346.4565,-4251.9683,-4157.4805,-4251.9683,-4251.9683,-3496.063,-3779.5276,-4031.496,-4000.0,-3874.0159,-3685.0393,-3716.5354,-3716.5354,-3716.5354,-3685.0393,-3622.0474,-3559.0552,-3496.063,-3401.5747,-3244.0945,-3055.1182,-2897.6377,-2645.6692,-2582.6772,-2834.6458,-3118.1104,-3023.622,-3244.0945,-3370.0789,-3433.0708,-3496.063,-3590.5513,-3590.5513,-3622.0474,-3653.5432,-3716.5354,-3716.5354,-3779.5276,-3779.5276,-3811.0237,-3748.0315,-3685.0393,-3622.0474,-3590.5513,-3559.0552,-3590.5513,-3748.0315,-3842.5198,-3874.0159,-4000.0,-3842.5198,-3874.0159,-3937.0078,-4000.0,-4062.9922,-4062.9922,-4220.4727,-4346.4565,-4377.9526,-4409.4487,-4314.9604,-4188.9766,-5385.8267,99999.0,99999.0,99999.0,99999.0,99999.0,99999.0,99999.0,99999.0,99999.0,99999.0,99999.0,99999.0,99999.0,99999.0,99999.0,99999.0,99999.0,99999.0,99999.0,99999.0,99999.0,-62.992126,-1511.811,-2771.6536,-3244.0945,-3433.0708,-3559.0552,-3622.0474,-3653.5432,-3748.0315,-3874.0159,-3842.5198,-4472.441,-3937.0078,-3338.5828,-2551.1812,-1511.811,-1228.3464,-1448.8188,-2425.1968,-3590.5513,-4000.0,-3086.6143,-4000.0,-4251.9683,-4409.4487,-4503.937,-4503.937,-4472.441,-4314.9604,-4125.9844,-4000.0,-4000.0,-4000.0,-3748.0315,-3527.559,-3338.5828,-3023.622,-3023.622,-3338.5828,-3370.0789,-3874.0159,-4000.0,-3937.0078,-4000.0,-4472.441,-4503.937,-4503.937,-4031.496,-4346.4565,-3212.5984,-3338.5828,-4125.9844,-4094.4883,-1448.8188,-4913.3857,-4850.3936,-5070.866,-5133.8584,-5007.874,-4409.4487,-4881.8896,-4787.4014,-4440.945,-3811.0237,-3275.5906,-2677.1653,-976.3779,-346.4567,-157.48032,99999.0,99999.0,99999.0,99999.0,99999.0,99999.0,99999.0,99999.0,99999.0,99999.0,99999.0,99999.0,-2834.6458,-3149.6062,-3401.5747,-3338.5828,-2960.63,-2708.6614,-3181.1023,-5007.874,-5007.874,-5007.874,-4881.8896,-4535.433,-3811.0237,-1984.252,-2015.748,-1984.252,-2834.6458,-3937.0078,-4283.4644,-4566.929,-4724.4097,-4535.433,-4818.8975,-4566.929,-4440.945,-4409.4487,-5039.37,-3464.567,-3055.1182,-3685.0393,-5007.874,-5448.819,-4850.3936,-4850.3936,-4566.929,-4598.4253,-4598.4253,-4850.3936,-4503.937,-4472.441,-4503.937,-4314.9604,-3968.504,-3968.504,-3433.0708,-3275.5906,-2456.6929,-3023.622,-3401.5747,-4031.496,-4000.0,-4000.0,-3905.5117,-3968.504,-4094.4883,-3748.0315,-3590.5513,-1574.8031,-1637.7953,-3653.5432,-4000.0,-4503.937,-4094.4883,-4535.433,-2929.1338,-1322.8346,-2141.7322,-2488.189,-2047.2441,-2267.7166,-3118.1104,-3086.6143,-5039.37,-5196.8506,-5070.866,-5228.3467,-5165.3545,-5039.37,-5070.866,-5291.3384,-5133.8584,-5070.866,-5070.866,-4818.8975,-3370.0789,0.0,99999.0,99999.0,99999.0,99999.0,99999.0,99999.0,99999.0,99999.0,99999.0,99999.0,99999.0,99999.0,99999.0,99999.0,99999.0,99999.0,99999.0,99999.0,99999.0,99999.0,99999.0,99999.0,99999.0,99999.0,99999.0,99999.0,99999.0,99999.0,99999.0,99999.0,99999.0,99999.0,99999.0,99999.0,99999.0,99999.0,99999.0,-3653.5432,-4629.9214,-4755.9053,-4692.9136,-2488.189,-3842.5198,-1732.2834,-1228.3464,-1228.3464,-1228.3464,-1637.7953
-5039.37,-5070.866,-5070.866,-5070.866,-5039.37,-4944.882,-4818.8975,-4755.9053,-4692.9136,-4692.9136,-4566.929,-4472.441,-4440.945,-4377.9526,-4314.9604,-4314.9604,-4251.9683,-4094.4883,-4062.9922,-4062.9922,-2677.1653,-4125.9844,-3622.0474,-3622.0474,-3779.5276,-3748.0315,-3653.5432,-3653.5432,-3590.5513,-3496.063,-3401.5747,-3275.5906,-3149.6062,-3055.1182,-2834.6458,-2929.1338,-2960.63,-3433.0708,-3149.6062,-3244.0945,-3401.5747,-3401.5747,-3212.5984,-3590.5513,-3622.0474,-3590.5513,-3559.0552,-3716.5354,-3716.5354,-3811.0237,-3748.0315,-3811.0237,-3716.5354,-3590.5513,-3937.0078,-3590.5513,-3716.5354,-3496.063,-3496.063,-3779.5276,-3811.0237,-3968.504,-3811.0237,-3716.5354,-3874.0159,-3968.504,-4000.0,-4062.9922,-4314.9604,-4283.4644,-4314.9604,-4409.4487,-4094.4883,-3748.0315,-4346.4565,99999.0,99999.0,99999.0,99999.0,99999.0,99999.0,99999.0,99999.0,99999.0,99999.0,99999.0,99999.0,99999.0,99999.0,99999.0,99999.0,99999.0,99999.0,99999.0,99999.0,-31.496063,-94.48819,-2236.2205,-2992.126,-3527.559,-3842.5198,-4031.496,-4094.4883,-4000.0,-3968.504,-4314.9604,-3968.504,-4598.4253,-4283.4644,-4503.937,-3401.5747,-2992.126,-3685.0393,-3874.0159,-4062.9922,-3937.0078,-3622.0474,-3370.0789,-3779.5276,-4000.0,-4220.4727,-4094.4883,-4220.4727,-4503.937,-4062.9922,-4000.0,-4000.0,-3811.0237,-3653.5432,-3496.063,-3496.063,-3559.0552,-3023.622,-3023.622,-3937.0078,-3590.5513,-4000.0,-4031.496,-4125.9844,-4094.4883,-4000.0,-4094.4883,-4031.496,-4157.4805,-4000.0,-4000.0,-2330.7087,-4472.441,-3842.5198,-4566.929,-4944.882,-5007.874,-5102.3623,-5039.37,-5007.874,-5007.874,-5007.874,-4881.8896,-4503.937,-4062.9922,-3811.0237,-3370.0789,-2551.1812,-472.44095,-188.97638,99999.0,99999.0,99999.0,99999.0,99999.0,99999.0,99999.0,99999.0,99999.0,99999.0,99999.0,-2771.6536,-3464.567,-3622.0474,-3559.0552,-3464.567,-1858.2677,-1574.8031,-3464.567,-5102.3623,-5007.874,-5007.874,-5007.874,-4535.433,-4125.9844,-1354.3307,-1133.8583,-1511.811,-2771.6536,-3433.0708,-3811.0237,-4000.0,-4000.0,-4566.929,-4944.882,-4913.3857,-4629.9214,-3464.567,-4157.4805,-4000.0,-4346.4565,-4976.378,-5543.307,-4566.929,-4566.929,-4692.9136,-4913.3857,-5039.37,-4913.3857,-4503.937,-4598.4253,-4472.441,-4566.929,-4062.9922,-4503.937,-3968.504,-4283.4644,-3370.0789,-2992.126,-2929.1338,-2960.63,-3622.0474,-3779.5276,-3842.5198,-1322.8346,-3181.1023,-3212.5984,-3779.5276,-3118.1104,-2236.2205,-3275.5906,-3842.5198,-4031.496,-4157.4805,-4503.937,-4503.937,-4251.9683,-4535.433,-4755.9053,-5259.8423,-4976.378,-3968.504,-3937.0078,-3338.5828,-4125.9844,-5511.811,-5543.307,-4346.4565,-4503.937,-5354.3306,-5133.8584,-5133.8584,-5133.8584,-4881.8896,-4598.4253,-4346.4565,-913.3858,0.0,99999.0,99999.0,99999.0,99999.0,99999.0,99999.0,99999.0,99999.0,99999.0,0.0,-31.496063,-31.496063,-31.496063,-31.496063,-62.992126,-62.992126,0.0,0.0,99999.0,99999.0,99999.0,99999.0,99999.0,99999.0,99999.0,99999.0,99999.0,99999.0,99999.0,99999.0,99999.0,99999.0,99999.0,99999.0,99999.0,99999.0,-31.496063,-4661.4175,-4566.929,-4787.4014,-4440.945,-3023.622,-4062.9922,-3433.0708,-1480.315,-1291.3386,-976.3779,-1354.3307
-5102.3623,-5102.3623,-5133.8584,-5133.8584,-5070.866,-5007.874,-4944.882,-4818.8975,-4755.9053,-4724.4097,-4629.9214,-4566.929,-4535.433,-4503.937,-4377.9526,-4314.9604,-3968.504,-3937.0078,-4000.0,-4157.4805,-4377.9526,-4283.4644,-4188.9766,-4251.9683,-4000.0,-3716.5354,-3653.5432,-3748.0315,-3685.0393,-3527.559,-3433.0708,-3370.0789,-3275.5906,-3086.6143,-2677.1653,-3055.1182,-3118.1104,-3118.1104,-3338.5828,-3307.0867,-3181.1023,-3401.5747,-3433.0708,-3527.559,-3590.5513,-3590.5513,-3590.5513,-3716.5354,-3811.0237,-3748.0315,-3685.0393,-3716.5354,-3653.5432,-3653.5432,-3653.5432,-3622.0474,-3527.559,-3779.5276,-3874.0159,-3874.0159,-3937.0078,-3968.504,-3905.5117,-3937.0078,-3905.5117,-3937.0078,-3622.0474,-3779.5276,-1637.7953,-2236.2205,-4346.4565,-4283.4644,-4220.4727,-4000.0,-3023.622,99999.0,99999.0,99999.0,99999.0,99999.0,99999.0,99999.0,99999.0,99999.0,99999.0,99999.0,99999.0,99999.0,0.0,99999.0,99999.0,99999.0,99999.0,99999.0,0.0,-62.992126,-535.43304,-2425.1968,-3212.5984,-3622.0474,-3842.5198,-4062.9922,-4188.9766,-4283.4644,-4409.4487,-4503.937,-4629.9214,-4818.8975,-4409.4487,-4566.929,-4661.4175,-4283.4644,-4188.9766,-4094.4883,-3527.559,-3968.504,-2582.6772,-2960.63,-3464.567,-4283.4644,-4503.937,-4503.937,-4503.937,-4472.441,-4314.9604,-4000.0,-3842.5198,-3811.0237,-3685.0393,-3401.5747,-3181.1023,-3338.5828,-3055.1182,-2992.126,-3496.063,-3968.504,-4000.0,-4000.0,-4000.0,-4000.0,-4062.9922,-4000.0,-3779.5276,-3181.1023,-2582.6772,-3653.5432,-2425.1968,-4724.4097,-4692.9136,-4346.4565,-4913.3857,-5070.866,-5165.3545,-5196.8506,-5102.3623,-5133.8584,-5007.874,-4881.8896,-4661.4175,-4503.937,-4251.9683,-4125.9844,-3716.5354,-2362.2048,-440.9449,99999.0,99999.0,99999.0,99999.0,99999.0,99999.0,99999.0,99999.0,99999.0,-94.48819,-3181.1023,-3653.5432,-3842.5198,-3874.0159,-3590.5513,-2456.6929,-1952.7559,-1826.7716,-4818.8975,-5102.3623,-5007.874,-5007.874,-5007.874,-5007.874,-4409.4487,-1511.811,-944.8819,-1291.3386,-2645.6692,-3590.5513,-4000.0,-4031.496,-4157.4805,-4503.937,-4566.929,-4472.441,-3842.5198,-3464.567,-3244.0945,-4598.4253,-4125.9844,-5417.3228,-4188.9766,-5007.874,-4755.9053,-4503.937,-4976.378,-4724.4097,-4503.937,-4503.937,-4503.937,-4503.937,-4314.9604,-4629.9214,-4062.9922,-3968.504,-3905.5117,-3338.5828,-3244.0945,-2992.126,-3055.1182,-3086.6143,-3464.567,-3496.063,-3653.5432,-3527.559,-3559.0552,-3496.063,-3023.622,-3023.622,-3653.5432,-4000.0,-4031.496,-4377.9526,-4377.9526,-4346.4565,-4503.937,-4472.441,-4220.4727,-4251.9683,-4503.937,-4535.433,-4000.0,-6582.6772,-4850.3936,-5448.819,-5070.866,-5511.811,-5007.874,-5165.3545,-5165.3545,-4188.9766,-2456.6929,-2708.6614,-2803.1497,-3023.622,-125.98425,99999.0,99999.0,99999.0,99999.0,99999.0,99999.0,99999.0,99999.0,99999.0,-31.496063,-62.992126,-724.4094,-661.4173,-1102.3622,-503.937,-724.4094,-283.46457,-94.48819,-31.496063,0.0,99999.0,99999.0,0.0,99999.0,99999.0,99999.0,99999.0,99999.0,99999.0,99999.0,99999.0,99999.0,99999.0,99999.0,99999.0,99999.0,-31.496063,-3464.567,-4850.3936,-4724.4097,-4881.8896,-4724.4097,-4629.9214,-3023.622,-3023.622,-1921.2599,-1480.315,-755.9055,-944.8819
-5133.8584,-5102.3623,-5196.8506,-5102.3623,-5133.8584,-5039.37,-4944.882,-4881.8896,-4850.3936,-4787.4014,-4724.4097,-4724.4097,-4598.4253,-4409.4487,-4031.496,-2236.2205,-3590.5513,-3716.5354,-3811.0237,-4220.4727,-4094.4883,-4125.9844,-4094.4883,-4125.9844,-4188.9766,-4031.496,-3811.0237,-3811.0237,-3685.0393,-3811.0237,-3685.0393,-3527.559,-3401.5747,-3086.6143,-2740.1575,-3149.6062,-3086.6143,-2929.1338,-2992.126,-3307.0867,-3307.0867,-3370.0789,-3370.0789,-3496.063,-3527.559,-3496.063,-3590.5513,-3716.5354,-3716.5354,-3622.0474,-3653.5432,-3622.0474,-3527.559,-3590.5513,-3685.0393,-3685.0393,-3874.0159,-3905.5117,-3968.504,-3905.5117,-3874.0159,-3905.5117,-3937.0078,-3937.0078,-3937.0078,-3937.0078,-3937.0078,-4000.0,-4125.9844,-4220.4727,-4157.4805,-4283.4644,-4283.4644,-5385.8267,-1354.3307,99999.0,99999.0,99999.0,99999.0,99999.0,99999.0,99999.0,99999.0,99999.0,99999.0,99999.0,99999.0,99999.0,99999.0,0.0,99999.0,99999.0,99999.0,-31.496063,-62.992126,-1322.8346,-2866.1418,-3496.063,-4125.9844,-4535.433,-4661.4175,-4692.9136,-4724.4097,-4724.4097,-4724.4097,-4724.4097,-4724.4097,-4818.8975,-4724.4097,-4598.4253,-4629.9214,-4503.937,-4472.441,-4409.4487,-4314.9604,-4125.9844,-3779.5276,-4881.8896,-4818.8975,-4346.4565,-4000.0,-3685.0393,-3842.5198,-3811.0237,-3748.0315,-3842.5198,-3968.504,-3874.0159,-3275.5906,-3433.0708,-3496.063,-2078.7402,-2992.126,-3307.0867,-3685.0393,-4283.4644,-4000.0,-4000.0,-4031.496,-4062.9922,-4000.0,-3842.5198,-3590.5513,-1480.315,-4031.496,-4251.9683,-4472.441,-3905.5117,-4881.8896,-4881.8896,-5007.874,-5133.8584,-5196.8506,-5165.3545,-5102.3623,-5228.3467,-5007.874,-5007.874,-4881.8896,-4724.4097,-4566.929,-4503.937,-4346.4565,-3653.5432,-1732.2834,-125.98425,99999.0,0.0,-62.992126,-94.48819,-62.992126,-94.48819,-377.95276,-2236.2205,-3811.0237,-4062.9922,-4125.9844,-4094.4883,-4062.9922,-2582.6772,-2393.7007,-2488.189,-2803.1497,-5133.8584,-5259.8423,-5133.8584,-5039.37,-5007.874,-5007.874,-4472.441,-2425.1968,-1669.2914,-1637.7953,-2677.1653,-3496.063,-4000.0,-4000.0,-4062.9922,-4409.4487,-2740.1575,-4629.9214,-2047.2441,-3496.063,-4000.0,-4944.882,-4094.4883,-4472.441,-5007.874,-4944.882,-4598.4253,-4503.937,-4535.433,-4661.4175,-4535.433,-4535.433,-4503.937,-4251.9683,-4283.4644,-4031.496,-4377.9526,-3937.0078,-4000.0,-3622.0474,-3496.063,-2992.126,-2488.189,-3622.0474,-3496.063,-3181.1023,-3622.0474,-3527.559,-3622.0474,-3559.0552,-3244.0945,-3779.5276,-4000.0,-4062.9922,-3968.504,-4346.4565,-4188.9766,-4472.441,-4472.441,-4503.937,-4503.937,-4503.937,-4535.433,-4503.937,-4535.433,-4031.496,-5543.307,-5543.307,-5574.803,-5511.811,-5480.315,-5385.8267,-5196.8506,-4755.9053,-2204.7244,-2267.7166,-2614.1733,-2834.6458,-472.44095,-31.496063,99999.0,99999.0,99999.0,-62.992126,-157.48032,-157.48032,-94.48819,-31.496063,-3559.0552,-3968.504,-4157.4805,-4062.9922,-3905.5117,-3433.0708,-1574.8031,-1385.8268,-818.89764,-62.992126,-62.992126,99999.0,0.0,99999.0,99999.0,99999.0,99999.0,99999.0,99999.0,99999.0,99999.0,99999.0,99999.0,99999.0,99999.0,99999.0,99999.0,-1606.2992,-4944.882,-4850.3936,-4598.4253,-4755.9053,-4629.9214,-4755.9053,-4755.9053,-4566.929,-2299.2126,-2299.2126,-1133.8583,-913.3858
-5102.3623,-5165.3545,-5196.8506,-5133.8584,-5133.8584,-5070.866,-4944.882,-4913.3857,-4881.8896,-4818.8975,-4724.4097,-4692.9136,-4692.9136,-4346.4565,-4251.9683,-4251.9683,-4283.4644,-4251.9683,-4283.4644,-4377.9526,-3622.0474,-4157.4805,-4062.9922,-4094.4883,-4314.9604,-4377.9526,-4062.9922,-3811.0237,-3968.504,-3653.5432,-4031.496,-3622.0474,-3433.0708,-3023.622,-3212.5984,-3055.1182,-2897.6377,-3055.1182,-3401.5747,-3527.559,-3496.063,-3370.0789,-3338.5828,-3149.6062,-3338.5828,-3496.063,-3527.559,-3496.063,-3622.0474,-3622.0474,-3464.567,-3653.5432,-3685.0393,-3559.0552,-3559.0552,-3779.5276,-3842.5198,-3937.0078,-3905.5117,-3779.5276,-3653.5432,-3937.0078,-3968.504,-3874.0159,-3716.5354,-3905.5117,-3905.5117,-4031.496,-4031.496,-4062.9922,-4062.9922,-4314.9604,-4409.4487,-2456.6929,99999.0,99999.0,99999.0,99999.0,99999.0,99999.0,99999.0,99999.0,99999.0,99999.0,99999.0,99999.0,99999.0,99999.0,99999.0,99999.0,0.0,0.0,0.0,-62.992126,-440.9449,-2677.1653,-3622.0474,-4314.9604,-4629.9214,-4787.4014,-4787.4014,-4818.8975,-4850.3936,-4881.8896,-4850.3936,-4818.8975,-4787.4014,-4818.8975,-4818.8975,-4755.9053,-4598.4253,-4629.9214,-4503.937,-4566.929,-4503.937,-4062.9922,-4220.4727,-4188.9766,-4535.433,-4503.937,-4000.0,-4000.0,-4000.0,-3779.5276,-3559.0552,-3748.0315,-3559.0552,-3527.559,-3527.559,-3622.0474,-2866.1418,-2992.126,-3464.567,-3527.559,-3968.504,-3937.0078,-3559.0552,-3968.504,-4000.0,-4000.0,-4000.0,-3496.063,-3433.0708,-4125.9844,-4503.937,-4661.4175,-4787.4014,-4850.3936,-4881.8896,-5007.874,-5196.8506,-5165.3545,-5196.8506,-5133.8584,-5070.866,-5007.874,-5007.874,-5039.37,-5007.874,-4818.8975,-4503.937,-4661.4175,-4566.929,-4125.9844,-3433.0708,-1921.2599,-157.48032,-94.48819,-125.98425,-440.9449,-1826.7716,-2330.7087,-4409.4487,-4472.441,-4503.937,-4503.937,-4472.441,-4503.937,-4157.4805,-4094.4883,-3590.5513,-3559.0552,-3874.0159,-5417.3228,-5448.819,-5165.3545,-5039.37,-5007.874,-5007.874,-4409.4487,-3212.5984,-3023.622,-3023.622,-3622.0474,-3496.063,-3685.0393,-3527.559,-4062.9922,-3496.063,-5133.8584,-5889.7637,-3055.1182,-4188.9766,-3842.5198,-3968.504,-4944.882,-5007.874,-5007.874,-5007.874,-4692.9136,-4440.945,-4503.937,-4503.937,-4503.937,-4472.441,-4472.441,-4440.945,-4440.945,-4503.937,-3968.504,-4000.0,-3464.567,-3842.5198,-3433.0708,-2992.126,-2488.189,-2992.126,-3023.622,-2960.63,-3937.0078,-3748.0315,-3685.0393,-3716.5354,-4031.496,-3968.504,-4000.0,-3968.504,-4000.0,-4000.0,-4220.4727,-4283.4644,-4503.937,-4503.937,-4598.4253,-4598.4253,-4535.433,-4503.937,-4503.937,-4629.9214,-4503.937,-5858.2676,-4094.4883,-4976.378,-4566.929,-5259.8423,-5417.3228,-5385.8267,-4881.8896,-5007.874,-5039.37,-5133.8584,-4220.4727,-3212.5984,-1480.315,-1322.8346,-3055.1182,-4314.9604,-4755.9053,-4661.4175,-4692.9136,-4629.9214,-4850.3936,-5007.874,-5228.3467,-5228.3467,-5259.8423,-5165.3545,-4818.8975,-2929.1338,-1921.2599,-1511.811,-1858.2677,-94.48819,-62.992126,99999.0,99999.0,99999.0,99999.0,99999.0,99999.0,99999.0,99999.0,99999.0,99999.0,99999.0,99999.0,99999.0,-94.48819,-4881.8896,-4850.3936,-4787.4014,-4440.945,-4503.937,-4724.4097,-4724.4097,-4787.4014,-4913.3857,-2645.6692,-3055.1182,-2204.7244,-1228.3464
-5228.3467,-5196.8506,-5196.8506,-5165.3545,-5165.3545,-5133.8584,-4976.378,-5039.37,-4913.3857,-4913.3857,-4818.8975,-4692.9136,-4503.937,-4598.4253,-4503.937,-4503.937,-4472.441,-4440.945,-4440.945,-4503.937,-4566.929,-4062.9922,-4220.4727,-4220.4727,-4251.9683,-4314.9604,-4283.4644,-4251.9683,-4000.0,-4031.496,-4031.496,-3716.5354,-3559.0552,-3212.5984,-3212.5984,-2866.1418,-2708.6614,-3181.1023,-3401.5747,-3527.559,-3716.5354,-3779.5276,-4031.496,-4000.0,-4220.4727,-3464.567,-3496.063,-3527.559,-3496.063,-3307.0867,-3338.5828,-2992.126,-3338.5828,-3496.063,-3559.0552,-3622.0474,-3905.5117,-3748.0315,-4000.0,-4000.0,-3968.504,-3968.504,-4000.0,-4000.0,-3968.504,-3968.504,-4094.4883,-4094.4883,-4094.4883,-4094.4883,-4125.9844,-4157.4805,-4629.9214,-125.98425,99999.0,99999.0,99999.0,99999.0,99999.0,99999.0,99999.0,99999.0,99999.0,99999.0,99999.0,99999.0,99999.0,99999.0,99999.0,99999.0,0.0,0.0,-62.992126,-755.9055,-2645.6692,-3685.0393,-4283.4644,-4724.4097,-4818.8975,-4944.882,-5007.874,-5007.874,-5007.874,-4976.378,-4976.378,-4944.882,-4944.882,-4881.8896,-4881.8896,-4850.3936,-4818.8975,-4818.8975,-4566.929,-4503.937,-4503.937,-4409.4487,-4472.441,-4503.937,-4440.945,-4503.937,-4535.433,-4031.496,-4000.0,-4000.0,-4000.0,-4000.0,-3905.5117,-3275.5906,-2992.126,-2929.1338,-2992.126,-3527.559,-3496.063,-3496.063,-3779.5276,-3968.504,-3590.5513,-3748.0315,-3527.559,-3559.0552,-3779.5276,-4000.0,-4251.9683,-4503.937,-5007.874,-5039.37,-5007.874,-5007.874,-5007.874,-5133.8584,-5165.3545,-5165.3545,-5039.37,-5007.874,-4661.4175,-5165.3545,-5007.874,-5039.37,-5007.874,-5007.874,-4818.8975,-4881.8896,-4692.9136,-4503.937,-4283.4644,-4000.0,-2992.126,-157.48032,-220.47244,-2141.7322,-2456.6929,-4629.9214,-3590.5513,-3338.5828,-4503.937,-4598.4253,-4598.4253,-4503.937,-4125.9844,-4000.0,-3905.5117,-3590.5513,-5133.8584,-5448.819,-5291.3384,-5007.874,-5007.874,-4850.3936,-4976.378,-4503.937,-3338.5828,-2456.6929,-2992.126,-3842.5198,-3685.0393,-3779.5276,-3527.559,-3149.6062,-3086.6143,-3716.5354,-3779.5276,-4125.9844,-3716.5354,-4692.9136,-4535.433,-5007.874,-5007.874,-5007.874,-5007.874,-4787.4014,-4598.4253,-4503.937,-4503.937,-4472.441,-4503.937,-4503.937,-4472.441,-4503.937,-4472.441,-4220.4727,-4062.9922,-4000.0,-3370.0789,-3244.0945,-2929.1338,-2488.189,-2488.189,-2519.685,-3937.0078,-3811.0237,-3779.5276,-3748.0315,-3811.0237,-3874.0159,-3842.5198,-3874.0159,-3748.0315,-4000.0,-4031.496,-3905.5117,-4031.496,-4125.9844,-4283.4644,-4503.937,-4440.945,-4503.937,-4503.937,-4503.937,-4566.929,-4818.8975,-4976.378,-5007.874,-4724.4097,-5637.7954,-5228.3467,-5574.803,-4535.433,-5007.874,-4976.378,-5606.2993,-5322.8345,-5228.3467,-5196.8506,-4976.378,-4755.9053,-4787.4014,-5070.866,-5259.8423,-5259.8423,-5385.8267,-5417.3228,-5448.819,-5511.811,-5511.811,-5574.803,-5574.803,-5606.2993,-5606.2993,-5574.803,-5606.2993,-5133.8584,-5070.866,-4188.9766,-94.48819,-31.496063,-31.496063,0.0,99999.0,99999.0,99999.0,99999.0,99999.0,99999.0,99999.0,99999.0,99999.0,99999.0,-3401.5747,-4787.4014,-4818.8975,-4692.9136,-4503.937,-4881.8896,-4283.4644,-4661.4175,-5007.874,-5291.3384,-4755.9053,-3622.0474,-2929.1338,-2740.1575
-5322.8345,-5259.8423,-5228.3467,-5196.8506,-5196.8506,-5165.3545,-5133.8584,-5039.37,-5007.874,-5007.874,-4913.3857,-4818.8975,-4598.4253,-4818.8975,-4724.4097,-4692.9136,-4598.4253,-4535.433,-4566.929,-4598.4253,-4629.9214,-4503.937,-4314.9604,-4220.4727,-4220.4727,-4283.4644,-3559.0552,-4251.9683,-4157.4805,-4062.9922,-4000.0,-3779.5276,-3590.5513,-3275.5906,-3275.5906,-2866.1418,-2803.1497,-3118.1104,-3338.5828,-3496.063,-3685.0393,-3905.5117,-4031.496,-4094.4883,-4094.4883,-4062.9922,-3905.5117,-3874.0159,-3622.0474,-3653.5432,-3559.0552,-3433.0708,-2960.63,-3118.1104,-3496.063,-3590.5513,-3622.0474,-3748.0315,-3874.0159,-4000.0,-4094.4883,-4062.9922,-4062.9922,-4094.4883,-4125.9844,-3905.5117,-4031.496,-4125.9844,-4125.9844,-4125.9844,-4125.9844,-4157.4805,-4377.9526,99999.0,99999.0,99999.0,99999.0,99999.0,99999.0,99999.0,99999.0,99999.0,99999.0,99999.0,99999.0,99999.0,99999.0,99999.0,99999.0,99999.0,-31.496063,-62.992126,-661.4173,-2015.748,-3842.5198,-4314.9604,-4787.4014,-5039.37,-5102.3623,-5102.3623,-5102.3623,-5102.3623,-5102.3623,-5070.866,-5039.37,-5007.874,-5007.874,-4976.378,-4976.378,-4944.882,-4818.8975,-4881.8896,-4724.4097,-4503.937,-4472.441,-4503.937,-3338.5828,-4094.4883,-4251.9683,-4062.9922,-4094.4883,-4000.0,-4000.0,-4000.0,-4000.0,-3968.504,-3496.063,-3496.063,-2992.126,-3086.6143,-2929.1338,-3275.5906,-3464.567,-3496.063,-1921.2599,-3527.559,-3496.063,-3527.559,-1984.252,-3433.0708,-3401.5747,-3496.063,-4062.9922,-4220.4727,-2960.63,-4944.882,-5007.874,-5007.874,-5102.3623,-5165.3545,-5070.866,-5007.874,-5039.37,-4881.8896,-5007.874,-5007.874,-5070.866,-5007.874,-5007.874,-5007.874,-4976.378,-4913.3857,-4913.3857,-4566.929,-4503.937,-4598.4253,-4283.4644,-4220.4727,-4283.4644,-4094.4883,-5133.8584,-4629.9214,-3307.0867,-2393.7007,-3433.0708,-4094.4883,-4503.937,-4409.4487,-4000.0,-4062.9922,-3968.504,-3464.567,-5007.874,-5511.811,-5039.37,-5007.874,-5070.866,-4503.937,-4472.441,-4094.4883,-3055.1182,-2897.6377,-3433.0708,-4094.4883,-3496.063,-3086.6143,-1732.2834,-1574.8031,-1984.252,-2519.685,-3244.0945,-3055.1182,-4535.433,-4503.937,-5102.3623,-5228.3467,-5228.3467,-5133.8584,-5070.866,-5007.874,-5007.874,-4944.882,-4503.937,-4503.937,-4472.441,-4440.945,-4409.4487,-4346.4565,-4409.4487,-4188.9766,-4409.4487,-4000.0,-3622.0474,-3275.5906,-2834.6458,-1511.811,-2015.748,-3716.5354,-3685.0393,-3685.0393,-3622.0474,-3685.0393,-3716.5354,-3685.0393,-3622.0474,-3496.063,-3811.0237,-3937.0078,-3937.0078,-4000.0,-3968.504,-4000.0,-4031.496,-4220.4727,-4377.9526,-4472.441,-4503.937,-4503.937,-4503.937,-4535.433,-4724.4097,-4913.3857,-5007.874,-4976.378,-4976.378,-4503.937,-4377.9526,-4535.433,-5039.37,-4472.441,-5070.866,-4913.3857,-5511.811,-5165.3545,-5196.8506,-5511.811,-5259.8423,-5228.3467,-5700.7876,-4881.8896,-5637.7954,-5102.3623,-5732.2837,-5574.803,-5637.7954,-5574.803,-5606.2993,-5574.803,-5511.811,-5606.2993,-5574.803,-5511.811,-5417.3228,-5322.8345,-4787.4014,-1543.3071,-94.48819,99999.0,99999.0,99999.0,99999.0,99999.0,99999.0,99999.0,99999.0,99999.0,99999.0,-3779.5276,-4724.4097,-4724.4097,-4503.937,-4503.937,-4503.937,-4598.4253,-4598.4253,-5007.874,-4755.9053,-4944.882,-4944.882,-3653.5432,-2299.2126
-5385.8267,-5322.8345,-5259.8423,-5228.3467,-5228.3467,-5228.3467,-5291.3384,-5511.811,-5165.3545,-5133.8584,-5039.37,-5070.866,-5039.37,-4976.378,-4818.8975,-4755.9053,-4724.4097,-4692.9136,-4629.9214,-4818.8975,-4755.9053,-4503.937,-4566.929,-4629.9214,-4503.937,-4472.441,-4440.945,-4251.9683,-4157.4805,-4062.9922,-3905.5117,-3685.0393,-3244.0945,-3244.0945,-3149.6062,-2897.6377,-2866.1418,-3149.6062,-3338.5828,-3496.063,-3653.5432,-3842.5198,-3937.0078,-4000.0,-4125.9844,-4220.4727,-4220.4727,-4188.9766,-4094.4883,-3968.504,-3685.0393,-3527.559,-3401.5747,-3244.0945,-3023.622,-3370.0789,-3527.559,-3559.0552,-3653.5432,-3874.0159,-3811.0237,-4031.496,-4062.9922,-4000.0,-3937.0078,-4157.4805,-4062.9922,-4094.4883,-4125.9844,-4157.4805,-4000.0,-4220.4727,-2866.1418,99999.0,99999.0,99999.0,99999.0,99999.0,99999.0,99999.0,99999.0,99999.0,99999.0,99999.0,99999.0,99999.0,99999.0,99999.0,0.0,-31.496063,-62.992126,-125.98425,-1039.3701,-3811.0237,-4409.4487,-4850.3936,-5133.8584,-5228.3467,-5228.3467,-5196.8506,-5165.3545,-5133.8584,-5133.8584,-5133.8584,-5102.3623,-5070.866,-5070.866,-5039.37,-5070.866,-5007.874,-4850.3936,-4976.378,-5007.874,-4818.8975,-4755.9053,-4503.937,-4000.0,-4094.4883,-4000.0,-4314.9604,-4062.9922,-4094.4883,-4000.0,-4000.0,-4000.0,-3842.5198,-3464.567,-3181.1023,-3244.0945,-3181.1023,-2929.1338,-2803.1497,-3653.5432,-2992.126,-3086.6143,-3401.5747,-3086.6143,-3370.0789,-3275.5906,-2614.1733,-3590.5513,-3779.5276,-4000.0,-4503.937,-5007.874,-5007.874,-5007.874,-5039.37,-5039.37,-5165.3545,-5070.866,-5007.874,-5007.874,-5196.8506,-5102.3623,-5007.874,-5039.37,-5039.37,-5070.866,-5007.874,-4818.8975,-4566.929,-4787.4014,-4755.9053,-4724.4097,-4724.4097,-4787.4014,-5039.37,-5007.874,-5133.8584,-5070.866,-4409.4487,-3244.0945,-2992.126,-2519.685,-4346.4565,-4094.4883,-4314.9604,-4000.0,-4220.4727,-3622.0474,-5039.37,-6047.244,-5228.3467,-5007.874,-5007.874,-4535.433,-4000.0,-4000.0,-3590.5513,-2204.7244,-3338.5828,-3401.5747,-2992.126,-1921.2599,-2456.6929,-3149.6062,-3496.063,-3527.559,-4031.496,-4566.929,-4251.9683,-4535.433,-4566.929,-5385.8267,-5322.8345,-5322.8345,-5291.3384,-5165.3545,-5039.37,-5039.37,-4566.929,-4535.433,-4503.937,-4409.4487,-4314.9604,-4251.9683,-4346.4565,-4503.937,-4503.937,-4503.937,-4000.0,-3559.0552,-2897.6377,-1133.8583,-2488.189,-3338.5828,-3496.063,-3527.559,-3496.063,-3496.063,-3653.5432,-3653.5432,-3590.5513,-3496.063,-3716.5354,-3622.0474,-3622.0474,-3622.0474,-3716.5354,-3748.0315,-3874.0159,-4000.0,-4031.496,-4062.9922,-4283.4644,-4472.441,-4472.441,-4503.937,-4503.937,-4503.937,-4598.4253,-4629.9214,-4629.9214,-4566.929,-4503.937,-4566.929,-4503.937,-4503.937,-4566.929,-4755.9053,-4692.9136,-5007.874,-5007.874,-5070.866,-4913.3857,-5102.3623,-5039.37,-4692.9136,-5007.874,-5039.37,-5543.307,-5354.3306,-5480.315,-5480.315,-5511.811,-5543.307,-5543.307,-5511.811,-5511.811,-5543.307,-5543.307,-5543.307,-5511.811,-5417.3228,-5039.37,-3653.5432,-1574.8031,-94.48819,-31.496063,99999.0,-62.992126,99999.0,99999.0,0.0,-314.96063,-1700.7874,-4598.4253,-4661.4175,-4661.4175,-4598.4253,-4629.9214,-4724.4097,-4661.4175,-4976.378,-2740.1575,-4724.4097,-4881.8896,-5007.874,-4787.4014,-3653.5432
-5448.819,-5385.8267,-5291.3384,-5291.3384,-5259.8423,-5228.3467,-5196.8506,-5102.3623,-5102.3623,-5133.8584,-5165.3545,-5102.3623,-5039.37,-5070.866,-5102.3623,-4976.378,-4850.3936,-4629.9214,-4724.4097,-4661.4175,-4598.4253,-4503.937,-4535.433,-4535.433,-4535.433,-4503.937,-4472.441,-4220.4727,-4188.9766,-4031.496,-3811.0237,-3590.5513,-3370.0789,-3212.5984,-3055.1182,-2897.6377,-2866.1418,-3275.5906,-3401.5747,-3496.063,-3653.5432,-3811.0237,-3905.5117,-4000.0,-4062.9922,-4220.4727,-4314.9604,-4346.4565,-4472.441,-3748.0315,-3590.5513,-3590.5513,-3527.559,-3370.0789,-3118.1104,-3181.1023,-3307.0867,-3496.063,-3559.0552,-3685.0393,-3716.5354,-4000.0,-4314.9604,-4000.0,-3968.504,-4000.0,-4000.0,-4094.4883,-4157.4805,-3905.5117,-4409.4487,-4251.9683,-1795.2756,-31.496063,99999.0,99999.0,99999.0,99999.0,99999.0,99999.0,99999.0,99999.0,99999.0,99999.0,99999.0,0.0,-31.496063,-62.992126,-62.992126,-62.992126,-62.992126,-692.9134,-2204.7244,-4440.945,-4944.882,-5228.3467,-5322.8345,-5385.8267,-5291.3384,-5228.3467,-5196.8506,-5165.3545,-5133.8584,-5133.8584,-5133.8584,-5133.8584,-5133.8584,-5102.3623,-5133.8584,-5102.3623,-4850.3936,-5007.874,-5007.874,-5007.874,-4850.3936,-4503.937,-4472.441,-4503.937,-4377.9526,-4188.9766,-4031.496,-4000.0,-4000.0,-4000.0,-4000.0,-3968.504,-3968.504,-3590.5513,-3496.063,-3055.1182,-2897.6377,-2866.1418,-3401.5747,-2992.126,-3338.5828,-3086.6143,-3244.0945,-2803.1497,-3338.5828,-3055.1182,-314.96063,-3307.0867,-4157.4805,-3968.504,-4535.433,-4629.9214,-4913.3857,-5007.874,-5007.874,-5039.37,-5007.874,-5007.874,-5480.315,-5511.811,-5259.8423,-5039.37,-5007.874,-4976.378,-5007.874,-4913.3857,-3968.504,-4724.4097,-4850.3936,-4944.882,-4944.882,-5039.37,-5007.874,-5007.874,-5007.874,-5070.866,-5070.866,-3527.559,-2582.6772,-2582.6772,-2992.126,-4000.0,-4157.4805,-4503.937,-4000.0,-4094.4883,-3937.0078,-4976.378,-5385.8267,-5417.3228,-5039.37,-4913.3857,-4503.937,-4000.0,-3464.567,-2771.6536,-2929.1338,-3023.622,-2866.1418,-2488.189,-2488.189,-3370.0789,-3527.559,-2551.1812,-4000.0,-4125.9844,-4535.433,-4157.4805,-4692.9136,-5007.874,-5039.37,-5165.3545,-5259.8423,-5511.811,-5133.8584,-5007.874,-5007.874,-4787.4014,-4629.9214,-4503.937,-4440.945,-4094.4883,-4125.9844,-4188.9766,-4125.9844,-4062.9922,-4157.4805,-4000.0,-3496.063,-3527.559,-1984.252,-2236.2205,-3055.1182,-3307.0867,-3464.567,-3496.063,-3496.063,-3496.063,-3496.063,-3496.063,-3527.559,-3496.063,-3496.063,-3496.063,-3370.0789,-3496.063,-3559.0552,-3496.063,-3716.5354,-3937.0078,-4000.0,-4094.4883,-4251.9683,-4409.4487,-4472.441,-4503.937,-4503.937,-4503.937,-4535.433,-4598.4253,-4503.937,-4503.937,-4503.937,-4503.937,-4535.433,-4598.4253,-4661.4175,-4755.9053,-5007.874,-4850.3936,-4944.882,-4787.4014,-5007.874,-4976.378,-5007.874,-5102.3623,-5007.874,-5165.3545,-5007.874,-5228.3467,-5228.3467,-5417.3228,-5511.811,-5511.811,-5574.803,-5511.811,-5574.803,-5511.811,-5291.3384,-5354.3306,-5133.8584,-5070.866,-5070.866,-4409.4487,-3149.6062,-1480.315,-94.48819,-62.992126,-62.992126,-62.992126,0.0,-62.992126,-4000.0,-4503.937,-4661.4175,-4787.4014,-4503.937,-4472.441,-4661.4175,-4692.9136,-4755.9053,-4976.378,-4944.882,-4976.378,-4913.3857,-4787.4014,-2330.7087
-5480.315,-5511.811,-5448.819,-5322.8345,-5228.3467,-5259.8423,-5354.3306,-5448.819,-5511.811,-4881.8896,-5039.37,-5007.874,-4976.378,-4976.378,-4976.378,-5039.37,-4913.3857,-4850.3936,-4724.4097,-4692.9136,-4629.9214,-4503.937,-4503.937,-4472.441,-4472.441,-4472.441,-4503.937,-4976.378,-4157.4805,-3968.504,-3748.0315,-3464.567,-3338.5828,-3181.1023,-3023.622,-2866.1418,-2929.1338,-3181.1023,-3401.5747,-3496.063,-3590.5513,-3685.0393,-3842.5198,-3937.0078,-4062.9922,-4125.9844,-4283.4644,-4346.4565,-4409.4487,-4062.9922,-3811.0237,-3748.0315,-3622.0474,-3496.063,-2992.126,-3370.0789,-3275.5906,-3401.5747,-3622.0474,-3748.0315,-3748.0315,-3811.0237,-3937.0078,-3842.5198,-3937.0078,-3968.504,-4031.496,-4188.9766,-3779.5276,-3779.5276,-3779.5276,-3937.0078,-1007.874,99999.0,99999.0,99999.0,99999.0,99999.0,99999.0,99999.0,99999.0,99999.0,99999.0,99999.0,99999.0,-31.496063,-31.496063,-62.992126,-62.992126,-94.48819,-503.937,-1826.7716,-4251.9683,-5102.3623,-5385.8267,-5511.811,-5448.819,-5448.819,-5385.8267,-5259.8423,-5196.8506,-5165.3545,-5165.3545,-5165.3545,-5196.8506,-5196.8506,-5165.3545,-5165.3545,-5165.3545,-5228.3467,-5165.3545,-5007.874,-5007.874,-5007.874,-4944.882,-4629.9214,-4503.937,-4503.937,-4472.441,-4503.937,-4409.4487,-4283.4644,-4000.0,-4000.0,-4000.0,-3968.504,-3527.559,-3401.5747,-3118.1104,-3496.063,-2866.1418,-3023.622,-2992.126,-2992.126,-3023.622,-3055.1182,-3496.063,-3496.063,-3433.0708,-3622.0474,-3779.5276,-3370.0789,-4346.4565,-4503.937,-4472.441,-4629.9214,-4881.8896,-4913.3857,-4850.3936,-4818.8975,-4913.3857,-5007.874,-5133.8584,-5196.8506,-5102.3623,-5007.874,-4881.8896,-4755.9053,-4661.4175,-4598.4253,-4755.9053,-1858.2677,-4661.4175,-4850.3936,-5007.874,-5007.874,-5007.874,-5007.874,-5007.874,-5007.874,-4598.4253,-3590.5513,-2645.6692,-2488.189,-2708.6614,-3653.5432,-4472.441,-4692.9136,-4535.433,-4188.9766,-4850.3936,-5039.37,-5102.3623,-4661.4175,-4503.937,-3968.504,-3905.5117,-3401.5747,-2582.6772,-2015.748,-2362.2048,-1448.8188,-1763.7795,-2803.1497,-2992.126,-3464.567,-3968.504,-3937.0078,-4031.496,-4000.0,-3937.0078,-4409.4487,-4535.433,-4755.9053,-4944.882,-5070.866,-5259.8423,-5196.8506,-5070.866,-5007.874,-5007.874,-5007.874,-5070.866,-4346.4565,-4251.9683,-4157.4805,-4062.9922,-4094.4883,-4062.9922,-4000.0,-4000.0,-3968.504,-3968.504,-3464.567,-2929.1338,-2708.6614,-2992.126,-3023.622,-2992.126,-3149.6062,-3307.0867,-3401.5747,-3401.5747,-2992.126,-2992.126,-3023.622,-3055.1182,-3055.1182,-3118.1104,-3401.5747,-3464.567,-3496.063,-3590.5513,-3779.5276,-4000.0,-4000.0,-4000.0,-4031.496,-4377.9526,-4472.441,-4472.441,-4062.9922,-4472.441,-4472.441,-4346.4565,-4472.441,-4503.937,-4535.433,-4503.937,-4535.433,-4535.433,-4566.929,-4535.433,-4503.937,-4976.378,-4661.4175,-4881.8896,-4976.378,-4944.882,-5007.874,-5007.874,-5007.874,-5007.874,-5039.37,-5007.874,-5259.8423,-5511.811,-5637.7954,-5511.811,-5448.819,-5354.3306,-5259.8423,-5133.8584,-5133.8584,-5039.37,-4944.882,-5039.37,-5007.874,-4566.929,-3496.063,-94.48819,0.0,-31.496063,-62.992126,0.0,-31.496063,-4220.4727,-4503.937,-4661.4175,-4787.4014,-3779.5276,-4724.4097,-4503.937,-4535.433,-4629.9214,-4787.4014,-4787.4014,-4755.9053,-4503.937,-4629.9214,-4000.0
-5480.315,-5511.811,-5480.315,-5417.3228,-5196.8506,-5228.3467,-5385.8267,-5448.819,-5385.8267,-5228.3467,-5196.8506,-5165.3545,-5070.866,-5070.866,-5196.8506,-5039.37,-5007.874,-4881.8896,-4818.8975,-4755.9053,-4692.9136,-4598.4253,-4472.441,-4409.4487,-4377.9526,-4346.4565,-4220.4727,-4125.9844,-4000.0,-3842.5198,-3748.0315,-3464.567,-3307.0867,-3023.622,-2960.63,-2803.1497,-2992.126,-3181.1023,-3433.0708,-3496.063,-3496.063,-3622.0474,-3811.0237,-3874.0159,-4031.496,-4188.9766,-4283.4644,-4440.945,-4409.4487,-4220.4727,-3968.504,-4000.0,-3811.0237,-3590.5513,-3685.0393,-3244.0945,-3716.5354,-3370.0789,-3370.0789,-3811.0237,-3811.0237,-3149.6062,-3149.6062,-3559.0552,-3685.0393,-3716.5354,-3622.0474,-3622.0474,-3685.0393,-3811.0237,-3685.0393,-3811.0237,-440.9449,99999.0,99999.0,99999.0,99999.0,99999.0,99999.0,99999.0,99999.0,99999.0,-94.48819,-31.496063,-31.496063,-31.496063,-62.992126,-62.992126,-62.992126,-314.96063,-1543.3071,-4346.4565,-4881.8896,-5385.8267,-5574.803,-5574.803,-5574.803,-5637.7954,-5511.811,-5196.8506,-5133.8584,-5102.3623,-5133.8584,-5165.3545,-5196.8506,-5196.8506,-5196.8506,-5196.8506,-5196.8506,-5228.3467,-5196.8506,-5039.37,-5007.874,-4976.378,-5007.874,-4944.882,-4787.4014,-4503.937,-4503.937,-4503.937,-4503.937,-4503.937,-4409.4487,-4031.496,-4000.0,-3748.0315,-3496.063,-3496.063,-3527.559,-2992.126,-2677.1653,-2425.1968,-2992.126,-2992.126,-3212.5984,-3622.0474,-3968.504,-3905.5117,-3685.0393,-3874.0159,-4000.0,-4000.0,-4000.0,-3622.0474,-4503.937,-4692.9136,-4755.9053,-3464.567,-4094.4883,-3527.559,-4850.3936,-5007.874,-4976.378,-5007.874,-5007.874,-4944.882,-4535.433,-4503.937,-4503.937,-3118.1104,-4818.8975,-4346.4565,-4976.378,-5039.37,-5039.37,-4787.4014,-5007.874,-5007.874,-5007.874,-4976.378,-4157.4805,-3275.5906,-2960.63,-3086.6143,-2614.1733,-4125.9844,-5007.874,-5007.874,-4976.378,-4598.4253,-5196.8506,-4913.3857,-4976.378,-3937.0078,-3779.5276,-3685.0393,-3307.0867,-2677.1653,-1858.2677,-2456.6929,-1669.2914,-3338.5828,-3496.063,-3559.0552,-3527.559,-3275.5906,-3527.559,-3496.063,-4062.9922,-2929.1338,-4283.4644,-4535.433,-4535.433,-4629.9214,-4787.4014,-4913.3857,-5322.8345,-4535.433,-5039.37,-5007.874,-5007.874,-5007.874,-4692.9136,-4440.945,-4346.4565,-4062.9922,-4031.496,-4031.496,-4000.0,-4031.496,-3968.504,-3622.0474,-3338.5828,-3244.0945,-2992.126,-2740.1575,-2771.6536,-3055.1182,-2645.6692,-2834.6458,-3055.1182,-3181.1023,-3275.5906,-2551.1812,-2519.685,-2740.1575,-2708.6614,-2992.126,-3055.1182,-3212.5984,-3338.5828,-3464.567,-3527.559,-3527.559,-3716.5354,-3811.0237,-4000.0,-4000.0,-4094.4883,-4220.4727,-4157.4805,-4000.0,-4000.0,-4125.9844,-4031.496,-4283.4644,-4472.441,-4472.441,-4440.945,-4503.937,-4503.937,-4503.937,-4566.929,-4503.937,-4535.433,-4661.4175,-4598.4253,-4913.3857,-4944.882,-4724.4097,-4944.882,-4818.8975,-4944.882,-5007.874,-5007.874,-5007.874,-5322.8345,-5511.811,-5259.8423,-5007.874,-5007.874,-5007.874,-5070.866,-5007.874,-4976.378,-3874.0159,-5102.3623,-5039.37,-5102.3623,-4503.937,-3275.5906,-94.48819,99999.0,99999.0,99999.0,-62.992126,-4094.4883,-4503.937,-4692.9136,-4787.4014,-4755.9053,-4629.9214,-4503.937,-4503.937,-4472.441,-4692.9136,-4913.3857,-4818.8975,-4944.882,-4850.3936,-4724.4097
-5448.819,-5480.315,-5480.315,-5448.819,-5417.3228,-5417.3228,-5448.819,-5480.315,-5354.3306,-5007.874,-5385.8267,-5165.3545,-5102.3623,-5133.8584,-5102.3623,-5039.37,-5007.874,-4976.378,-4787.4014,-4755.9053,-4692.9136,-4566.929,-4377.9526,-4346.4565,-4251.9683,-4251.9683,-4125.9844,-3968.504,-3905.5117,-3874.0159,-3716.5354,-3464.567,-3338.5828,-3149.6062,-2929.1338,-2488.189,-3055.1182,-3181.1023,-3275.5906,-3401.5747,-3496.063,-3622.0474,-3811.0237,-3874.0159,-3968.504,-4188.9766,-4283.4644,-4377.9526,-4314.9604,-4220.4727,-4283.4644,-4503.937,-4220.4727,-4188.9766,-4062.9922,-3968.504,-3937.0078,-3905.5117,-3811.0237,-3685.0393,-3590.5513,-3307.0867,-3212.5984,-3023.622,-3275.5906,-3590.5513,-3527.559,-3496.063,-3559.0552,-3527.559,-3622.0474,-3811.0237,-125.98425,99999.0,99999.0,99999.0,99999.0,99999.0,99999.0,99999.0,99999.0,99999.0,0.0,-31.496063,-62.992126,-62.992126,-62.992126,-94.48819,-787.40155,-1984.252,-3685.0393,-4881.8896,-5291.3384,-5606.2993,-5669.2915,-5669.2915,-5700.7876,-5732.2837,-5511.811,-5196.8506,-5133.8584,-5039.37,-5133.8584,-5165.3545,-5196.8506,-5196.8506,-5196.8506,-5196.8506,-5196.8506,-5228.3467,-5228.3467,-5165.3545,-5039.37,-5354.3306,-5007.874,-4503.937,-4503.937,-4503.937,-4503.937,-4503.937,-4503.937,-4503.937,-4440.945,-4251.9683,-4000.0,-3748.0315,-3559.0552,-3496.063,-3464.567,-3055.1182,-2551.1812,-3023.622,-3023.622,-3275.5906,-3496.063,-3842.5198,-4000.0,-3905.5117,-4000.0,-3748.0315,-4000.0,-4031.496,-4000.0,-4409.4487,-4598.4253,-818.89764,-1574.8031,-3527.559,-3811.0237,-4283.4644,-4661.4175,-4755.9053,-4692.9136,-4503.937,-4850.3936,-4692.9136,-4566.929,-3181.1023,-3842.5198,-4503.937,-4976.378,-5133.8584,-4976.378,-5007.874,-5165.3545,-5007.874,-5007.874,-5007.874,-5007.874,-4566.929,-3433.0708,-4283.4644,-4251.9683,-4598.4253,-5039.37,-5039.37,-5007.874,-4881.8896,-5070.866,-5574.803,-4629.9214,-4566.929,-4157.4805,-4377.9526,-3496.063,-2992.126,-2834.6458,-2582.6772,-2173.2283,-4598.4253,-3338.5828,-2960.63,-3433.0708,-2992.126,-3023.622,-2992.126,-2992.126,-2992.126,-3716.5354,-3968.504,-3716.5354,-4188.9766,-4440.945,-4503.937,-4661.4175,-4755.9053,-4913.3857,-5007.874,-5007.874,-5007.874,-5007.874,-5007.874,-5322.8345,-4503.937,-4346.4565,-4062.9922,-4031.496,-4031.496,-4000.0,-4000.0,-3937.0078,-3559.0552,-3464.567,-3307.0867,-3086.6143,-3244.0945,-2992.126,-2992.126,-2677.1653,-2519.685,-2960.63,-3433.0708,-3118.1104,-2992.126,-2929.1338,-2897.6377,-2614.1733,-2519.685,-2992.126,-2992.126,-3086.6143,-3244.0945,-3401.5747,-3496.063,-3590.5513,-3685.0393,-3968.504,-4000.0,-4000.0,-4000.0,-4031.496,-4000.0,-4000.0,-4000.0,-4000.0,-4094.4883,-4188.9766,-4251.9683,-4440.945,-4472.441,-4440.945,-4472.441,-4503.937,-4503.937,-4598.4253,-4503.937,-4503.937,-4598.4253,-4913.3857,-4598.4253,-4629.9214,-4535.433,-4724.4097,-4881.8896,-5007.874,-5007.874,-5007.874,-5039.37,-4944.882,-5007.874,-5007.874,-4976.378,-4976.378,-4850.3936,-4692.9136,-5007.874,-3779.5276,-4944.882,-4503.937,-4787.4014,-4440.945,-2015.748,99999.0,99999.0,99999.0,-535.43304,-3559.0552,-4251.9683,-4566.929,-4629.9214,-4661.4175,-4598.4253,-4535.433,-4724.4097,-4661.4175,-4692.9136,-4818.8975,-5007.874,-4976.378,-4976.378,-4692.9136
-5322.8345,-5259.8423,-5291.3384,-5322.8345,-5417.3228,-5385.8267,-5417.3228,-5322.8345,-5417.3228,-5102.3623,-5385.8267,-4818.8975,-5133.8584,-5102.3623,-5070.866,-5007.874,-4787.4014,-4944.882,-4692.9136,-4755.9053,-4692.9136,-4535.433,-4440.945,-4314.9604,-4094.4883,-3716.5354,-4000.0,-3748.0315,-3874.0159,-3842.5198,-3716.5354,-3433.0708,-3338.5828,-3086.6143,-2929.1338,-2834.6458,-3118.1104,-3212.5984,-3338.5828,-3307.0867,-3496.063,-3590.5513,-3370.0789,-3842.5198,-3905.5117,-3937.0078,-4440.945,-4314.9604,-4314.9604,-4220.4727,-4314.9604,-4031.496,-4314.9604,-4251.9683,-4220.4727,-4188.9766,-4094.4883,-4031.496,-3874.0159,-3716.5354,-3874.0159,-3527.559,-3496.063,-3244.0945,-3023.622,-3244.0945,-3464.567,-3590.5513,-3622.0474,-3622.0474,-3496.063,-2960.63,-94.48819,-94.48819,99999.0,99999.0,99999.0,99999.0,99999.0,99999.0,99999.0,99999.0,-31.496063,-62.992126,-62.992126,-94.48819,-94.48819,-377.95276,-1984.252,-3433.0708,-4755.9053,-5228.3467,-5511.811,-5700.7876,-5826.7715,-5606.2993,-5385.8267,-5417.3228,-5322.8345,-5259.8423,-5165.3545,-5039.37,-5102.3623,-5133.8584,-5165.3545,-5165.3545,-5165.3545,-5165.3545,-5291.3384,-5291.3384,-5228.3467,-5196.8506,-5133.8584,-5007.874,-5133.8584,-4913.3857,-4850.3936,-4503.937,-4724.4097,-4503.937,-4535.433,-4503.937,-4503.937,-4440.945,-4062.9922,-3937.0078,-3779.5276,-3527.559,-3559.0552,-3622.0474,-2992.126,-3433.0708,-3370.0789,-3464.567,-3496.063,-3559.0552,-3874.0159,-4000.0,-4000.0,-4000.0,-4000.0,-4000.0,-2236.2205,-4535.433,-4125.9844,-724.4094,-4377.9526,-4188.9766,-4251.9683,-4503.937,-4503.937,-4535.433,-4503.937,-4157.4805,-2551.1812,-4598.4253,-4220.4727,-4472.441,-4503.937,-4881.8896,-4629.9214,-5070.866,-5070.866,-5007.874,-4944.882,-4976.378,-4913.3857,-5007.874,-4503.937,-4724.4097,-4503.937,-5007.874,-5070.866,-5102.3623,-5196.8506,-5511.811,-5480.315,-5354.3306,-5480.315,-4472.441,-4629.9214,-3433.0708,-4314.9604,-3023.622,-2992.126,-3055.1182,-1732.2834,-2834.6458,-4000.0,-2866.1418,-2992.126,-2897.6377,-2677.1653,-2614.1733,-2488.189,-2488.189,-2456.6929,-2708.6614,-3023.622,-3527.559,-3748.0315,-4062.9922,-4346.4565,-4503.937,-4566.929,-4692.9136,-4881.8896,-5007.874,-5007.874,-5007.874,-5007.874,-5070.866,-4503.937,-4503.937,-4377.9526,-4031.496,-4000.0,-4000.0,-4000.0,-3968.504,-3716.5354,-3496.063,-3464.567,-3433.0708,-3433.0708,-3496.063,-3275.5906,-2992.126,-2960.63,-3244.0945,-3464.567,-3464.567,-3401.5747,-3307.0867,-3023.622,-2992.126,-2992.126,-3023.622,-2803.1497,-2519.685,-2960.63,-3023.622,-3181.1023,-3370.0789,-3496.063,-3559.0552,-3590.5513,-3779.5276,-3874.0159,-4000.0,-4000.0,-3748.0315,-3842.5198,-4000.0,-4000.0,-4000.0,-4000.0,-4062.9922,-4314.9604,-4377.9526,-4314.9604,-4283.4644,-4409.4487,-4503.937,-4440.945,-4503.937,-4503.937,-4503.937,-4503.937,-4503.937,-4503.937,-5007.874,-4566.929,-4503.937,-4944.882,-4566.929,-4976.378,-4976.378,-4976.378,-4881.8896,-4818.8975,-4818.8975,-4755.9053,-4692.9136,-4692.9136,-4503.937,-5007.874,-4818.8975,-4503.937,-4629.9214,-4598.4253,-3496.063,-1133.8583,0.0,-94.48819,-3433.0708,-2992.126,-2866.1418,-4220.4727,-4566.929,-4661.4175,-4566.929,-4629.9214,-5007.874,-4566.929,-4566.929,-5007.874,-5007.874,-5007.874,-4913.3857,-4724.4097
-5196.8506,-5165.3545,-5196.8506,-5385.8267,-5385.8267,-5385.8267,-5417.3228,-5417.3228,-5417.3228,-5291.3384,-5165.3545,-5228.3467,-5133.8584,-5070.866,-5007.874,-4913.3857,-4850.3936,-4818.8975,-4755.9053,-4724.4097,-4661.4175,-4535.433,-4409.4487,-4251.9683,-4220.4727,-4094.4883,-4000.0,-3905.5117,-3811.0237,-3685.0393,-3496.063,-3401.5747,-3212.5984,-2992.126,-2803.1497,-2897.6377,-3149.6062,-3055.1182,-2771.6536,-3370.0789,-3181.1023,-3496.063,-3685.0393,-3811.0237,-3842.5198,-3905.5117,-4000.0,-4094.4883,-4125.9844,-4157.4805,-4157.4805,-4377.9526,-4346.4565,-4283.4644,-4220.4727,-4125.9844,-4157.4805,-4062.9922,-3968.504,-3842.5198,-3779.5276,-3559.0552,-3527.559,-3244.0945,-2992.126,-3244.0945,-3023.622,-3496.063,-2960.63,-3055.1182,-3149.6062,-1228.3464,0.0,-94.48819,99999.0,99999.0,99999.0,99999.0,99999.0,99999.0,99999.0,99999.0,-62.992126,-94.48819,-94.48819,-94.48819,-125.98425,-1480.315,-2015.748,-4220.4727,-5102.3623,-5448.819,-5637.7954,-5795.2754,-5921.26,-5732.2837,-5637.7954,-5354.3306,-5259.8423,-5165.3545,-5070.866,-5007.874,-5070.866,-5102.3623,-5070.866,-5102.3623,-5133.8584,-5102.3623,-5259.8423,-5322.8345,-5322.8345,-5322.8345,-5291.3384,-5165.3545,-5133.8584,-5102.3623,-5007.874,-4661.4175,-4503.937,-4503.937,-4472.441,-4503.937,-4503.937,-4377.9526,-4188.9766,-4000.0,-3968.504,-3496.063,-3937.0078,-3590.5513,-2992.126,-3244.0945,-2992.126,-3496.063,-3590.5513,-3716.5354,-3905.5117,-3968.504,-3527.559,-3622.0474,-3622.0474,-3496.063,-3748.0315,-2866.1418,-4188.9766,-4283.4644,-4031.496,-4283.4644,-4503.937,-4661.4175,-5070.866,-2645.6692,-4000.0,-4125.9844,-4535.433,-4377.9526,-4503.937,-4629.9214,-4598.4253,-4944.882,-5070.866,-4755.9053,-5039.37,-4661.4175,-4976.378,-4566.929,-4503.937,-4157.4805,-4913.3857,-5007.874,-5007.874,-5259.8423,-5070.866,-5543.307,-5511.811,-5511.811,-5511.811,-4976.378,-5039.37,-4598.4253,-3590.5513,-4094.4883,-4283.4644,-1511.811,-1858.2677,-1826.7716,-2456.6929,-2204.7244,-2992.126,-2173.2283,-2267.7166,-1637.7953,-1763.7795,-2015.748,-2519.685,-3055.1182,-2960.63,-3023.622,-3212.5984,-3433.0708,-3559.0552,-3842.5198,-4125.9844,-4409.4487,-4503.937,-4566.929,-4692.9136,-4881.8896,-4976.378,-4913.3857,-4850.3936,-4661.4175,-4503.937,-4440.945,-4031.496,-4000.0,-4000.0,-3937.0078,-3779.5276,-3590.5513,-3559.0552,-3527.559,-3464.567,-3496.063,-3496.063,-3496.063,-3433.0708,-3244.0945,-3244.0945,-3433.0708,-3496.063,-3496.063,-3496.063,-3496.063,-3433.0708,-3275.5906,-3118.1104,-3023.622,-3023.622,-2992.126,-2992.126,-2992.126,-3496.063,-3244.0945,-3464.567,-3496.063,-3496.063,-3527.559,-3622.0474,-3590.5513,-3559.0552,-3874.0159,-3937.0078,-4000.0,-4000.0,-4000.0,-4000.0,-4031.496,-4094.4883,-4157.4805,-4220.4727,-4283.4644,-4314.9604,-4377.9526,-4283.4644,-4220.4727,-4503.937,-4503.937,-4503.937,-4503.937,-4472.441,-4503.937,-4629.9214,-4692.9136,-4535.433,-4440.945,-5480.315,-4724.4097,-4535.433,-4598.4253,-4566.929,-4566.929,-4535.433,-4535.433,-4503.937,-4472.441,-4976.378,-4598.4253,-4503.937,-4661.4175,-4818.8975,-4251.9683,-3590.5513,-2519.685,-2582.6772,-3842.5198,-2992.126,-2960.63,-4346.4565,-4629.9214,-4787.4014,-4850.3936,-5007.874,-4661.4175,-4535.433,-5007.874,-5007.874,-5007.874,-4913.3857,-4818.8975,-4787.4014
